%YAML:1.0
mat: !!opencv-matrix
   rows: 32
   cols: 129
   dt: d
   data: [ 9.0527244724190723e+00, 9.0566551565416091e+00, 9.0487925024255649e+00, 9.0566547353378333e+00, 9.0546891851810347e+00, 9.0507580687284062e+00, 9.0566551565416091e+00, 9.0527236296457261e+00, 9.0507589116847775e+00, 9.0468277740563572e+00, 9.0468273523950362e+00, 9.0546891851810347e+00, 9.0546896064762432e+00, 9.0586207012320070e+00, 9.0546900277714339e+00, 9.0586202801196229e+00, 9.0645156197344683e+00, 9.0527236296457261e+00, 9.0546891851810347e+00, 9.0566547353378333e+00, 9.0409318710340738e+00, 9.0468269307336939e+00, 0., 9.0370002576754729e+00, 9.0350354982743770e+00, 9.0271734521204348e+00, 9.0291394998317465e+00, 0., 9.0370006797953213e+00, 9.0468273523950362e+00, 9.0605849774877854e+00, 9.0704134361308881e+00, 9.0900674291613051e+00, 9.1038254965632444e+00, 9.1215132230899005e+00, 9.1352719535080507e+00, 9.1490295896144431e+00, 9.1588568508016639e+00, 9.1804766116945746e+00, 9.0350354982743770e+00, 8.8286659817652016e+00, 8.6105034671902949e+00, 8.4218238163739194e+00, 8.2410058209491623e+00, 8.0719799523761520e+00, 7.9029538969838082e+00, 7.7437546700008619e+00, 7.5884860910978258e+00, 7.4410796967390862e+00, 7.2976037259912632e+00, 7.1600246552623581e+00, 7.0283408695379856e+00, 6.9025543128960942e+00, 6.7806981297256437e+00, 6.6667040188060875e+00, 6.5566406250000000e+00, 6.4406813380754064e+00, 6.3345480640709795e+00, 6.2362776604010497e+00, 6.1380062974367373e+00, 6.0417010426913551e+00, 5.9493258310701291e+00, 5.8569513216501710e+00, 5.7724380557246118e+00, 5.6898906001349365e+00, 5.6152044836160924e+00, 5.5306916898003777e+00, 5.4599360474135317e+00, 5.3891811925172126e+00, 5.3203913701018921e+00, 5.2457054375087981e+00, 5.1788817364407018e+00, 5.1061607773268491e+00, 5.0491632051524764e+00, 4.9823393775632923e+00, 4.9253421257971857e+00, 4.8683455606524895e+00, 4.8093822337908563e+00, 4.7504195981663111e+00, 4.7012842574591884e+00, 4.6482175630742448e+00, 4.5951517263108279e+00, 4.5381539201990462e+00, 4.4929495787008387e+00, 4.4457797322830235e+00, 4.4084367669031161e+00, 4.3494738731980922e+00, 4.3062353657112551e+00, 4.2610308042073921e+00, 4.2217215916047195e+00, 4.1902752689810230e+00, 4.1273819952858455e+00, 4.0782461331087898e+00, 4.0467991177429647e+00, 4.0173184278911993e+00, 3.9780100527905331e+00, 3.9465632203008041e+00, 3.9092198183285491e+00, 3.8856350562088382e+00, 3.8404304622736083e+00, 3.8070182789112472e+00, 3.7834332681192517e+00, 3.7401939609027419e+00, 3.7225051000597302e+00, 3.6890930355477289e+00, 3.6576464993802658e+00, 3.6301304258344955e+00, 3.6006493724494075e+00, 3.5613409465773640e+00, 3.4021419285721222e+00, 3.1446716656343559e+00, 3.3785568144818345e+00, 3.0503315417087471e+00, 3.0346082195068340e+00, 3.1839804572459336e+00, 3.3706951237193539e+00, 3.3628334872708687e+00, 3.1348444183049242e+00, 3.1544989837049879e+00, 3.3805219899537033e+00, 3.3785565322091338e+00, 3.3962454204507391e+00, 3.4021419285721222e+00, 3.4237612746611203e+00, 3.4414500343057499e+00, 3.4630701800600985e+00, 3.4768274784903475e+00, 3.4945164366966104e+00, 3.5200669095876052e+00,
       1.0341360317450119e+01, 1.0343333624904217e+01, 1.0341360686327818e+01, 1.0339387002331636e+01, 1.0337414048562909e+01, 1.0339387371279736e+01, 1.0339387371279736e+01, 1.0341359948572407e+01, 1.0341360686327818e+01, 1.0337413679544378e+01, 1.0335440718172940e+01, 1.0339386633383523e+01, 1.0337414048562909e+01, 1.0337414048562909e+01, 1.0341359948572407e+01, 1.0337413310525836e+01, 1.0341359948572407e+01, 1.0335440349083955e+01, 1.0339387002331636e+01, 1.0335441087261913e+01, 1.0337414417581424e+01, 1.0339386633383523e+01, 0., 1.0333464795988876e+01, 1.0335440718172940e+01, 1.0335440718172940e+01, 1.0335440349083955e+01, 1.0333465165148423e+01, 1.0335441087261913e+01, 1.0333465165148423e+01, 1.0337414417581424e+01, 1.0331492557436000e+01, 1.0335440349083955e+01, 1.0329519203718073e+01, 1.0290048284092979e+01, 9.9821763460926789e+00, 0., 9.5085254361145974e+00, 9.2776208840186030e+00, 9.0526380877430555e+00, 8.8375217896102498e+00, 8.6342458510292381e+00, 8.4388652685941352e+00, 8.2533525533046639e+00, 8.0777080140503905e+00, 7.9060094744014933e+00, 7.7500999198132821e+00, 7.5961636447564711e+00, 7.4580154209115639e+00, 7.3040790814467051e+00, 7.1777723744742437e+00, 7.0435721022066904e+00, 6.9152913698718876e+00, 6.7870112965035787e+00, 6.6804395821123856e+00, 6.5521597642994251e+00, 6.4574294247316883e+00, 6.3429643116247254e+00, 6.2442869396565710e+00, 6.1357424206439957e+00, 6.0469327228955185e+00, 5.9522028331445940e+00, 5.8594466141456936e+00, 5.7805046632086503e+00, 5.6956423649543595e+00, 5.6186742181303249e+00, 5.5476264552057781e+00, 5.4627642325385724e+00, 5.3877697445635677e+00, 5.3206695571265099e+00, 5.2496217863905663e+00, 5.1844951705387716e+00, 5.1134472405496441e+00, 5.0522677777891314e+00, 4.9891143557191953e+00, 4.9318817623596276e+00, 4.8687281244494116e+00, 4.8134687365210773e+00, 4.7582097631511040e+00, 4.7049240777500945e+00, 4.6654533216671750e+00, 4.5884852959774607e+00, 4.5411202104891784e+00, 4.4878348052957593e+00, 4.4444162977175070e+00, 4.3990252628906106e+00, 4.3575812036648500e+00, 4.3161362507466983e+00, 4.2766658994852884e+00, 4.2332476139150863e+00, 4.1957507481761009e+00, 4.1503591451012039e+00, 4.1069412276728032e+00, 4.0654968945246592e+00, 4.0299730274443171e+00, 3.9944493405296329e+00, 3.9569517167167625e+00, 3.9234015544792800e+00, 3.8839306209665287e+00, 3.8523542662031987e+00, 3.8188039223318073e+00, 3.7872274772875314e+00, 3.7517036382841011e+00, 3.7201268828708254e+00, 3.6924972294491631e+00, 3.6589470721449104e+00, 3.6372380689980752e+00, 3.6056613064778076e+00, 3.5800054015220084e+00, 3.1339848862254973e+00, 3.1793761604716404e+00, 3.4773812347908009e+00, 3.4576456849359438e+00, 3.0175455727410871e+00, 3.1774028846672402e+00, 0., 0., 3.3530480709299111e+00, 3.1339848862254973e+00, 3.1576670874138273e+00, 3.3767302987321886e+00, 3.3944920580393592e+00, 3.4102806951269664e+00, 3.4300161564838487e+00, 3.4477780747387041e+00, 3.4635663865815842e+00, 3.4813284791493504e+00, 3.4990900764220174e+00, 3.5168517282494598e+00,
       1.2105037655683184e+01, 1.2101076415552422e+01, 1.2087212582221449e+01, 1.2087212582221449e+01, 1.2069387732576073e+01, 1.2063445533496989e+01, 1.2045621616258344e+01, 1.2035717261145443e+01, 1.2039680361132607e+01, 1.2021853575006903e+01, 1.2023834717691331e+01, 1.2011950582112357e+01, 1.2017894118885154e+01, 1.2015913266616874e+01, 1.2023835986736408e+01, 1.2025816168418739e+01, 1.2023834717691331e+01, 1.2023834717691331e+01, 1.2035717895041552e+01, 1.2035717895041552e+01, 1.2037698657336616e+01, 1.2037698657336616e+01, 0., 1.2029775553929911e+01, 1.2029777456557410e+01, 1.2029776188139111e+01, 1.2021854209634025e+01, 1.2023834717691331e+01, 1.2013933357837578e+01, 1.1891138935386470e+01, 1.1518799384389524e+01, 1.1174184365770701e+01, 1.0837493410735453e+01, 1.0550315917288442e+01, 1.0251255237664990e+01, 9.8709921127780937e+00, 0., 9.4709228439789097e+00, 9.2451427181733941e+00, 9.0233233556092181e+00, 8.8173464171118656e+00, 8.6014693668323137e+00, 8.4093570001665405e+00, 8.2271472110878232e+00, 8.0568222043931890e+00, 7.8904562752691048e+00, 7.7280523794227456e+00, 7.5795124474896403e+00, 7.4210687781681912e+00, 7.2962954697426499e+00, 7.1536972623591204e+00, 7.0170396767579497e+00, 6.8982077330259139e+00, 6.7635311560404947e+00, 6.6446994623402054e+00, 6.5298279304675155e+00, 6.4228794027116329e+00, 6.3278130348450627e+00, 6.2228447549719910e+00, 6.1257990101850055e+00, 6.0287521012389753e+00, 5.9376471250275271e+00, 5.8485228279283330e+00, 5.7653414855555916e+00, 5.6861191634855333e+00, 5.6009562016609991e+00, 5.5237154749050097e+00, 5.4464745834515371e+00, 5.3751756506319390e+00, 5.3117980493280905e+00, 5.2305961975114172e+00, 5.1474137858599756e+00, 5.0860166294487570e+00, 5.0305620753859630e+00, 4.9691655207177430e+00, 4.9117296075860191e+00, 4.8503333852173407e+00, 4.7928977158932415e+00, 4.7315012453156795e+00, 4.6839681925878622e+00, 4.6245516997945071e+00, 4.5710772013165020e+00, 4.5235446001461863e+00, 4.4779923903216181e+00, 4.4324402236995732e+00, 4.3868874494498513e+00, 4.3433154869932791e+00, 4.3037050652685718e+00, 4.2541916316262283e+00, 4.2145810474057050e+00, 4.1729897142105719e+00, 4.1313986424008569e+00, 4.0917873191266700e+00, 4.0482159016898214e+00, 4.0204887176571695e+00, 3.9749366419319250e+00, 3.9333449950826584e+00, 3.9036368212384853e+00, 3.8660068135287835e+00, 3.8323373468152462e+00, 3.7947075076967036e+00, 3.7649994009962278e+00, 3.7313301729569766e+00, 3.6996413959240777e+00, 3.6679528899251093e+00, 3.6422062006420788e+00, 3.6045759259018002e+00, 3.5748678649811931e+00, 3.5431791030701660e+00, 3.1371696024639828e+00, 3.4698993050424085e+00, 3.4599967694129634e+00, 3.4461331244385409e+00, 0., 3.1351887735238342e+00, 0., 0., 3.3372034176838810e+00, 3.3253204994331291e+00, 0., 3.1629164892672414e+00, 0., 3.3926585203844932e+00, 3.4124640382541660e+00, 3.4322689134753381e+00, 3.4520746765457915e+00, 3.4679189150349701e+00, 3.4897047942170194e+00, 3.5035683289271562e+00,
       1.4532965708524749e+01, 1.4527006583879761e+01, 1.4532965183553120e+01, 1.4525020190961923e+01, 1.4527006058692784e+01, 1.4528992180104277e+01, 1.4527006583879761e+01, 1.4528991129873853e+01, 1.4527006583879761e+01, 1.4523032475693190e+01, 1.4523033001023860e+01, 1.4525019665703125e+01, 1.4523033526354512e+01, 1.4523034051685146e+01, 1.4519060432573678e+01, 1.4513100855280614e+01, 1.4511114136126134e+01, 1.4513100855280614e+01, 1.4509127144932341e+01, 1.4509127670766480e+01, 1.4503168746398956e+01, 1.4499194944986924e+01, 0., 1.4495222159529034e+01, 1.4234996191680152e+01, 1.3690704110027371e+01, 1.3190115863560131e+01, 1.2743162228966169e+01, 1.2298195211849176e+01, 1.1908847475442759e+01, 1.1557243843317758e+01, 1.1197693342007568e+01, 1.0871913077169056e+01, 1.0569970733688677e+01, 1.0272002261319015e+01, 0., 0., 9.5092002087893732e+00, 9.2648641392915874e+00, 9.0463542360101563e+00, 8.8477071259574789e+00, 8.6311822378936291e+00, 8.4345241243706131e+00, 8.2656734587721754e+00, 8.0829190282403456e+00, 7.9180429433499775e+00, 7.7511800052242803e+00, 7.6002089421512267e+00, 7.4472505142614862e+00, 7.3022391556145996e+00, 7.1691461162663543e+00, 7.0300937634397105e+00, 6.9089192889312869e+00, 6.7698670935157352e+00, 6.6884217384643518e+00, 6.5453960050026527e+00, 6.4341546412303163e+00, 6.3229130132707558e+00, 6.2255760569774532e+00, 6.1302259299631512e+00, 6.0249433206131959e+00, 5.9375385483946017e+00, 5.8461612072021847e+00, 5.7607437601974887e+00, 5.6832715759203394e+00, 5.5998399711631688e+00, 5.5243545914743519e+00, 5.4448954834378158e+00, 5.3753697467756378e+00, 5.3018705054276118e+00, 5.2283715280619854e+00, 5.1568590209106793e+00, 5.0913055733078814e+00, 5.0277386845894823e+00, 4.9701311603025475e+00, 4.9125236685379248e+00, 4.8489570440119234e+00, 4.7893631857838672e+00, 4.7377152446876849e+00, 4.6820940507113944e+00, 4.6284595644180717e+00, 4.5787977954599590e+00, 4.5291368489949413e+00, 4.4774882639225817e+00, 4.4278263440906143e+00, 4.3841243963204457e+00, 4.3404225290532361e+00, 4.2907604754592947e+00, 4.2450719198687787e+00, 4.2033564280501441e+00, 4.1596541840528287e+00, 4.1199249490364940e+00, 4.0782094193998235e+00, 4.0345067316675891e+00, 3.9967641855347118e+00, 3.9689540059679778e+00, 3.9232649448843993e+00, 3.8934679789536228e+00, 3.8557253735753934e+00, 3.8259284743838422e+00, 3.7861991839117373e+00, 3.7544158367376519e+00, 3.7226321688950921e+00, 3.6848894350605157e+00, 3.6570790972856617e+00, 3.6332416896169870e+00, 3.5994713395094835e+00, 3.5736475753917070e+00, 3.1386120166779699e+00, 3.1584765446250787e+00, 0., 3.4683647972878271e+00, 0., 2.9657894430604554e+00, 0., 3.2558135342360064e+00, 0., 3.3253392842363687e+00, 3.3293125380036055e+00, 3.3452042599110960e+00, 3.1326526781825055e+00, 3.1525173966656070e+00, 0., 3.4147303296874418e+00, 3.4345951638015482e+00, 3.4485003542994619e+00, 3.4683647972878271e+00, 3.4822701567132808e+00, 3.5080940116629611e+00,
       1.8304513276753035e+01, 1.8310487604070737e+01, 1.8306504657988885e+01, 1.8308494989199172e+01, 1.8304510775928804e+01, 1.8310487604070737e+01, 1.8304511609536920e+01, 1.8308494989199172e+01, 1.8304513276753035e+01, 1.8306504657988885e+01, 1.8306505491506204e+01, 1.8302520845148884e+01, 1.8300529864201934e+01, 1.8298539500505566e+01, 1.8294554787238777e+01, 1.8290572542851482e+01, 1.8290572542851482e+01, 1.8282607955707778e+01, 0., 1.7482083986128394e+01, 1.7500005231584041e+01, 1.7513943594029410e+01, 0., 1.4833585129790249e+01, 1.4268041065598647e+01, 1.3740330850985039e+01, 1.3250459483114987e+01, 1.2786474974000543e+01, 1.2350369071851153e+01, 1.1954088758124117e+01, 1.1579714934903743e+01, 1.1239193621724006e+01, 1.0920576681483096e+01, 1.0623865403575163e+01, 1.0321179245988901e+01, 9.9985808319152856e+00, 9.5186652477195839e+00, 9.5186648469598936e+00, 9.2737283251311524e+00, 9.0646368204156502e+00, 8.8316485639670859e+00, 8.6384879534032901e+00, 8.4453255991168064e+00, 8.2641124819756708e+00, 8.0888737309259113e+00, 7.9156264843131749e+00, 7.7563185007173550e+00, 7.6069668008143303e+00, 7.4436755787598754e+00, 7.3102554397727149e+00, 7.1748431677076514e+00, 7.0434142282332450e+00, 6.9179585487467135e+00, 6.7905120180143168e+00, 6.6690393358295461e+00, 6.5575240389186602e+00, 6.4460084851499380e+00, 6.3285186268394522e+00, 6.2389073926531049e+00, 6.1373487279084102e+00, 6.0477373163811619e+00, 5.9501612537235076e+00, 5.8625417874601800e+00, 5.7769138880395490e+00, 5.6912852675670873e+00, 5.6116311469151574e+00, 5.5319770292079635e+00, 5.4523234393092288e+00, 5.3786434865693815e+00, 5.3069551140939391e+00, 5.2312831572253220e+00, 5.1755251263279511e+00, 5.0978625960990804e+00, 5.0401133306567880e+00, 4.9803731991446973e+00, 4.9186408179839569e+00, 4.8549175854964721e+00, 4.7951768484906561e+00, 4.7374277879349718e+00, 4.6816695510422619e+00, 4.6259123443597803e+00, 4.5721448567054654e+00, 4.5263441165471905e+00, 4.4685950619174006e+00, 4.4188111814933242e+00, 4.3690271205082176e+00, 4.3391572012644524e+00, 4.2953472958928458e+00, 4.2535293734424009e+00, 4.2077280245013258e+00, 4.1619267524312029e+00, 4.1240913083821322e+00, 4.0802814730621293e+00, 4.0404543811860210e+00, 4.0006269917232098e+00, 3.9588087632949409e+00, 3.9329213966567238e+00, 3.9050424158818591e+00, 3.8672068585768624e+00, 3.8353450030100626e+00, 3.7995008642750632e+00, 3.7676391280215551e+00, 3.7377686981270313e+00, 3.7059071065394780e+00, 3.6740452622650639e+00, 3.6421839441963688e+00, 3.6103221096563716e+00, 3.5724863992569622e+00, 0., 3.5127460814373999e+00, 3.4669448692002902e+00, 3.1144755333113814e+00, 0., 2.9591498703203745e+00, 3.1343889717254649e+00, 3.2339567199623058e+00, 3.1443457886399195e+00, 3.2897142503009000e+00, 3.3394980803848417e+00, 3.3534377038486567e+00, 0., 3.2001033766260973e+00, 3.1642593134197261e+00, 0., 0., 3.4549969738561956e+00, 3.4769015371903196e+00, 3.4968149133996524e+00, 3.5107545473096060e+00,
       2.4474238339224293e+01, 2.4476233340429573e+01, 2.4476233340429573e+01, 2.4466257954994109e+01, 2.4470246601740655e+01, 2.4454288111315979e+01, 2.4454288111315979e+01, 2.4456279748576335e+01, 2.4454289359259782e+01, 2.4450294364920232e+01, 2.4452292567700198e+01, 2.4448300991821881e+01, 2.4019349245630984e+01, 2.3181395022632103e+01, 2.1870595957341830e+01, 2.0687483773124299e+01, 1.9542280478960468e+01, 1.8562673445896319e+01, 1.7626956479397187e+01, 0., 1.7509245255966739e+01, 1.5384434232378863e+01, 0., 1.4751978854613137e+01, 1.4187357494293941e+01, 1.3670619361983361e+01, 1.3179817167411931e+01, 1.2742883828115044e+01, 1.2311936728668735e+01, 1.1916900276793092e+01, 1.1549798370847283e+01, 1.1214615849086321e+01, 1.0873448403702861e+01, 1.0548242460540413e+01, 1.0258949280712830e+01, 9.8698987701697547e+00, 0., 9.5147662597427516e+00, 9.2893171091052551e+00, 9.0638679261243968e+00, 8.8503893405596674e+00, 8.6428956950835492e+00, 8.4613387557784883e+00, 8.2737962106491096e+00, 8.0962306164852116e+00, 7.9266451406654479e+00, 7.7610490852753102e+00, 7.6114145792337879e+00, 7.4537982756532166e+00, 7.3081545185526160e+00, 7.1665013612120321e+00, 7.0447978745671520e+00, 6.9151140178512467e+00, 6.7914164054335666e+00, 6.6796892132673245e+00, 6.5599816712844472e+00, 6.4482548326630900e+00, 6.3365275041261260e+00, 6.2507369560633794e+00, 6.1449953014334087e+00, 6.0472333146422219e+00, 5.9494723430644392e+00, 5.8576963741323631e+00, 5.7739013155203116e+00, 5.6960904148726694e+00, 5.6222712361775482e+00, 5.5285006656955105e+00, 5.4546810870213482e+00, 5.3768706504186063e+00, 5.3230023859317184e+00, 5.2412017486702105e+00, 5.1673822625214676e+00, 5.1035378620234066e+00, 5.0416894497107041e+00, 4.9758503402822232e+00, 4.9179912442396612e+00, 4.8641228250254533e+00, 4.8042686714047349e+00, 4.7464104189623528e+00, 4.6965318261295383e+00, 4.6426635785677783e+00, 4.5907902946862160e+00, 4.5389166856150904e+00, 4.4910341590086809e+00, 4.4471403899253144e+00, 4.4012526723024230e+00, 4.3533701677696737e+00, 4.3114720100627686e+00, 4.2595990553746752e+00, 4.2216917730930987e+00, 4.1817888628267355e+00, 4.1339054501318584e+00, 4.1039790128353442e+00, 4.0660718034595345e+00, 4.0281639410937737e+00, 3.9862666408015639e+00, 3.9523487158142974e+00, 3.9164369123450600e+00, 3.8785293257670439e+00, 3.8446120869340024e+00, 3.8086995428015094e+00, 3.7807682455568905e+00, 3.7448556582413177e+00, 3.7149289800291143e+00, 3.6869968135645119e+00, 3.6530797532985728e+00, 3.6251478493892688e+00, 3.2141515976309689e+00, 3.1742490706426278e+00, 3.5233966292148682e+00, 0., 3.4535671313565244e+00, 3.4735181873746481e+00, 2.9607703330325741e+00, 3.3797475131381449e+00, 0., 3.3378497679806380e+00, 3.3358543081876495e+00, 3.1463173668627995e+00, 3.3478254633794684e+00, 0., 3.3977034554323793e+00, 3.2620348017722978e+00, 3.1882148389903251e+00, 3.4415957932337009e+00, 3.4675330699397069e+00, 3.4854891924353311e+00, 3.4994547282949298e+00, 3.5214013689173780e+00,
       3.5221727219989866e+01, 2.4015900748660901e+01, 0., 0., 0., 0., 0., 0., 0., 0., 3.5251689897436123e+01, 0., 2.4003913560312149e+01, 2.3276707558116843e+01, 2.1978116335488124e+01, 2.0733468329837510e+01, 1.9628669541483191e+01, 1.8643739425753370e+01, 1.7712750961690265e+01, 0., 0., 1.7546929784809844e+01, 0., 1.4791925361770966e+01, 1.4224541660426839e+01, 1.3691120940322566e+01, 1.3217636025387042e+01, 1.2770122730259816e+01, 1.2336593678122886e+01, 1.1939026100912974e+01, 1.1581414665290854e+01, 1.1237788375532002e+01, 1.0908145947421767e+01, 1.0568515847633465e+01, 1.0274833555335276e+01, 9.9252143586885797e+00, 0., 9.5296441398218334e+00, 9.3018910444034510e+00, 9.0861268487095117e+00, 8.8663649122857837e+00, 8.6585901725890384e+00, 8.4667989024651558e+00, 8.2790031407996878e+00, 8.1031943345110236e+00, 7.9333790572101659e+00, 7.7695567810038035e+00, 7.6217176532965496e+00, 7.4598928628954786e+00, 7.3140520584302466e+00, 7.1841932568288307e+00, 7.0583297435236441e+00, 6.9284705434204543e+00, 6.8066030755779199e+00, 6.6847357340059519e+00, 6.5788510028407030e+00, 6.4609791248092350e+00, 6.3510979251414730e+00, 6.2432156170882864e+00, 6.1473199975156225e+00, 6.0514236414565215e+00, 5.9595236845226749e+00, 5.8716190430551247e+00, 5.7877105081392406e+00, 5.6998063974796551e+00, 5.6278838500486730e+00, 5.5499688774817129e+00, 5.4720536199028418e+00, 5.3981338172655970e+00, 5.3282096609957383e+00, 5.2602834351037542e+00, 5.1883617742395938e+00, 5.1184378690653674e+00, 5.0565052095377130e+00, 5.0005658783175289e+00, 4.9226507635166223e+00, 4.8767010582010837e+00, 4.8067767307274112e+00, 4.7508367504158215e+00, 4.6948981332341297e+00, 4.6429544375778473e+00, 4.5910111131843099e+00, 4.5430630045171831e+00, 4.4931172611192745e+00, 4.4431719998266939e+00, 4.3992195044035718e+00, 4.3552668640150065e+00, 4.3053215099970590e+00, 4.2653647542521389e+00, 4.2194145526933555e+00, 4.1774604354436757e+00, 4.1395013400159852e+00, 4.1035407245781643e+00, 4.0595885187602931e+00, 4.0196318470162007e+00, 3.9796752737791312e+00, 3.9517056174887926e+00, 3.9197406204201917e+00, 3.8857772837067976e+00, 3.8538123440471104e+00, 3.8178510790996834e+00, 3.7858860820029068e+00, 3.7519228773670124e+00, 3.7179596646128354e+00, 3.6879921277638652e+00, 3.6560269801273275e+00, 3.6280575715599817e+00, 3.1705548024165982e+00, 0., 0., 3.2944198072118711e+00, 0., 3.4782200665775833e+00, 2.9487957581595650e+00, 3.3643444122108854e+00, 0., 0., 3.3243872916935144e+00, 3.3483615341505324e+00, 3.3543548689142724e+00, 3.1805436764809456e+00, 3.3943112634593589e+00, 3.4142897331683852e+00, 3.3423678670029759e+00, 3.1945283482539097e+00, 0., 3.4782202036698719e+00, 3.5041917495343893e+00, 3.5201744651907325e+00,
       2.3939549928543979e+01, 2.3963541949666737e+01, 2.3947545267029067e+01, 2.3955546854489803e+01, 0., 2.3919553079672077e+01, 0., 2.3997534307341478e+01, 2.4005533216323272e+01, 2.3999532059240238e+01, 2.4013529460867861e+01, 2.3973539388674183e+01, 0., 0., 2.1884103853364518e+01, 2.0688424910876343e+01, 1.9558731447363300e+01, 1.8568996127618210e+01, 0., 0., 1.7509281857685512e+01, 1.5393852770667907e+01, 0., 1.4760022912149815e+01, 1.4192177157013461e+01, 1.3664317665749278e+01, 1.3170451203816420e+01, 1.2744565516145009e+01, 1.2310683063115091e+01, 1.1914789296479070e+01, 1.1552887421059372e+01, 1.1202981306827786e+01, 1.0869072361926250e+01, 1.0543159067613464e+01, 1.0253237701419801e+01, 0., 0., 9.5114376081397474e+00, 9.2774999986842328e+00, 9.0595588910169731e+00, 8.8416189045624236e+00, 8.6356736633073758e+00, 8.4497230439253439e+00, 8.2637741237617739e+00, 8.0858214439135097e+00, 7.9178670943462084e+00, 7.7559107728560095e+00, 7.5979527275862129e+00, 7.4439943313536050e+00, 7.3040318159097763e+00, 7.1660688579720793e+00, 7.0341047807036521e+00, 6.9061395282454114e+00, 6.7861712481148189e+00, 6.6662038960374534e+00, 6.5502355868072240e+00, 6.4422646084208699e+00, 6.3322936091352338e+00, 6.2323211881752476e+00, 6.1383462419597707e+00, 6.0423718621868403e+00, 5.9483969829072239e+00, 5.8624204325207447e+00, 5.7724446641889129e+00, 5.6904664739726085e+00, 5.6124877793618690e+00, 5.5305095974485665e+00, 5.4585289179968992e+00, 5.3845491971150512e+00, 5.3145683301322348e+00, 5.2425873514373773e+00, 5.1686075728326832e+00, 5.1066241310545992e+00, 5.0346435096404827e+00, 4.9826576838063179e+00, 4.9126764474489191e+00, 4.8546920732145740e+00, 4.7987068977616252e+00, 4.7367237673026166e+00, 4.6807389391635121e+00, 4.6327521849335778e+00, 4.5787661367137762e+00, 4.5287797179419735e+00, 4.4807929110475904e+00, 4.4348052533214686e+00, 4.3868178834524381e+00, 4.3448296172665009e+00, 4.2968423738107937e+00, 4.2548533384551215e+00, 4.2148641138583596e+00, 4.1728759022151722e+00, 4.1268881897843377e+00, 4.0908975928559217e+00, 4.0529080346829556e+00, 4.0149184024637892e+00, 3.9789281377484329e+00, 3.9329403104386969e+00, 3.9089468229809134e+00, 3.8729562599712368e+00, 3.8369661338808854e+00, 3.8049749935496404e+00, 3.7649854694709179e+00, 3.7369929757566434e+00, 3.7070012789802003e+00, 3.6750097002173878e+00, 3.6470176008598374e+00, 3.6170256147967357e+00, 3.1771440010323579e+00, 3.5230506972239217e+00, 3.1791435357515150e+00, 0., 3.4730643171027542e+00, 3.4770630893990306e+00, 2.9212130036335346e+00, 3.3111079907953749e+00, 0., 0., 0., 3.3291031380624756e+00, 3.3450986335022899e+00, 3.3630938150987215e+00, 3.3790894210647573e+00, 3.2151338578474387e+00, 0., 3.3790894210647573e+00, 3.1991379649636977e+00, 3.4690656088823788e+00, 3.4910591914137035e+00, 3.5050557270055012e+00,
       2.3916000870886631e+01, 2.3920002171953289e+01, 2.3922000020084806e+01, 2.3934002732857000e+01, 0., 0., 0., 0., 0., 2.3991999246249389e+01, 2.4029999103903307e+01, 0., 0., 2.3988002321391704e+01, 0., 2.0707999868285732e+01, 1.9592001610341129e+01, 1.8602001353233558e+01, 0., 0., 1.7492000822474182e+01, 1.5404000572662223e+01, 0., 1.4768000077666079e+01, 1.4192000292927460e+01, 1.3680000375669596e+01, 1.3176000706925688e+01, 1.2744000987022348e+01, 1.2326000886401173e+01, 1.1930000226131927e+01, 1.1558000998657205e+01, 1.1208000622506297e+01, 1.0888000434735336e+01, 1.0542000464983435e+01, 1.0252000939055485e+01, 0., 0., 9.5200008860355254e+00, 9.2800004419787072e+00, 9.0640004987590270e+00, 8.8380000424856622e+00, 8.6439994858755291e+00, 8.4520007953056684e+00, 8.2639998513117412e+00, 8.0820010421136779e+00, 7.9240004718439536e+00, 7.7600003602332590e+00, 7.6020003346576335e+00, 7.4480001235945510e+00, 7.3059999969758112e+00, 7.1720002605993471e+00, 7.0359999147103949e+00, 6.9080001891842429e+00, 6.7900002274211237e+00, 6.6660004600801717e+00, 6.5560000245592960e+00, 6.4460002000544154e+00, 6.3340000337071327e+00, 6.2340002114593007e+00, 6.1380007040421773e+00, 6.0440004598641366e+00, 5.9480003266427435e+00, 5.8620003883884895e+00, 5.7720005585583625e+00, 5.6940002185431577e+00, 5.6120002575070140e+00, 5.5320003022188997e+00, 5.4560000647491718e+00, 5.3760007769379738e+00, 5.3040005178667045e+00, 5.2359999226919101e+00, 5.1640004487573030e+00, 5.1020002892889273e+00, 5.0380000924007806e+00, 4.9740006636437748e+00, 4.9140000089180385e+00, 4.8560008020667427e+00, 4.7980003403746601e+00, 4.7440003099103700e+00, 4.6839999546927329e+00, 4.6320007539396055e+00, 4.5860000944008634e+00, 4.5300000801675884e+00, 4.4800000265666418e+00, 4.4360003019148753e+00, 4.3900002683322281e+00, 4.3419998265656901e+00, 4.3000001951705533e+00, 4.2560000980635326e+00, 4.2140001472722970e+00, 4.1740004022412549e+00, 4.1319999256558706e+00, 4.0980002201614578e+00, 4.0600003108132530e+00, 4.0200000485851985e+00, 3.9780002235807621e+00, 3.9380002385222217e+00, 3.9080000962381343e+00, 3.8660001531088808e+00, 3.8380003314075259e+00, 3.8000003212376510e+00, 3.7700005273793304e+00, 3.7380001077993836e+00, 3.7140000726045552e+00, 3.6780001584292070e+00, 3.6520001091680272e+00, 3.1780002625779176e+00, 3.1980001995761755e+00, 0., 3.5100002475749306e+00, 3.4880001898949247e+00, 3.4760001081284484e+00, 3.4760001081284484e+00, 2.9020001912764335e+00, 0., 0., 0., 0., 3.3280000618421108e+00, 3.3440001207013998e+00, 3.3700001734159066e+00, 3.3880003162010071e+00, 3.4020003661212130e+00, 3.4160002702092012e+00, 3.3800000487558939e+00, 3.3880003162010071e+00, 3.1960000788338929e+00, 3.4640001648424916e+00, 0.,
       2.3931553194083538e+01, 2.3933550077995900e+01, 2.3939549928543979e+01, 2.3945549550213265e+01, 0., 2.3907559706770837e+01, 2.3965543808540261e+01, 2.3979540687470042e+01, 2.3989537819738992e+01, 2.3999532059240238e+01, 2.4017529761402269e+01, 2.4001533459311251e+01, 2.3983539022483082e+01, 0., 2.1950086672531402e+01, 2.0782399081248190e+01, 1.9606718258773096e+01, 1.8610984495627424e+01, 1.7639247897975981e+01, 0., 1.7507282594613486e+01, 1.5427843046403250e+01, 0., 1.4792014075842474e+01, 1.4206173610523832e+01, 1.3696309638186417e+01, 1.3210440835578217e+01, 1.2772558862173833e+01, 1.2338675776673727e+01, 1.1940782664859706e+01, 1.1572881873095950e+01, 1.1228974085320042e+01, 1.0905061760910726e+01, 1.0565153793031607e+01, 1.0271233128523019e+01, 9.8493465923328358e+00, 0., 9.5214344950616550e+00, 9.2934962183480341e+00, 9.0735553526873503e+00, 8.8476161526409278e+00, 8.6616656717673344e+00, 8.4537220178208994e+00, 8.2817686674249842e+00, 8.0938197541637056e+00, 7.9258649961691878e+00, 7.7699068418831745e+00, 7.6119493207021218e+00, 7.4579903578794369e+00, 7.3120297011725874e+00, 7.1780657342731873e+00, 7.0481007391737114e+00, 6.9181361035481803e+00, 6.7961689198624757e+00, 6.6742013632096775e+00, 6.5642314261692967e+00, 6.4542607746524157e+00, 6.3422916032583769e+00, 6.2443177905348035e+00, 6.1423452360461877e+00, 6.0503701845521141e+00, 5.9583947594239559e+00, 5.8644200285900832e+00, 5.7824422070970991e+00, 5.6964654370356529e+00, 5.6164866130882922e+00, 5.5365079038403904e+00, 5.4545302015149097e+00, 5.3805506235149423e+00, 5.3065701768879237e+00, 5.2405876071894770e+00, 5.1706073048649754e+00, 5.1026249432066981e+00, 5.0346435096404827e+00, 4.9786585251902160e+00, 4.9166751581323433e+00, 4.8586910048530196e+00, 4.8047057608900952e+00, 4.7487202978447876e+00, 4.6947348139319365e+00, 4.6427488251511502e+00, 4.5927625360345319e+00, 4.5407766234147653e+00, 4.4927897439372275e+00, 4.4468021947137624e+00, 4.4068122667352245e+00, 4.3568263106415701e+00, 4.3008406770985088e+00, 4.2648513707227202e+00, 4.2188634786531871e+00, 4.1808733532420721e+00, 4.1348860213635836e+00, 4.0968960619631662e+00, 4.0549074087613803e+00, 4.0189171739990917e+00, 3.9849264324294622e+00, 3.9509354509793218e+00, 3.9089468229809134e+00, 3.8729562599712368e+00, 3.8409651926097745e+00, 3.8049749935496404e+00, 3.7729834368291897e+00, 3.7429914467031278e+00, 3.7090008309929834e+00, 3.6890056575029631e+00, 0., 3.1931398648752101e+00, 3.1811428629103733e+00, 0., 3.5230511032672958e+00, 3.5170523903518260e+00, 3.4730643171027542e+00, 2.9212128404009419e+00, 2.8972195022324785e+00, 2.9312103789362332e+00, 0., 3.3610946157451758e+00, 3.3311024989239528e+00, 3.3351014851881056e+00, 3.3590949363182236e+00, 3.3730909811823908e+00, 3.3990839902326995e+00, 3.4130804888636765e+00, 3.4270765928687195e+00, 3.4470712752845842e+00, 3.4530697641227057e+00, 3.4550690162931090e+00, 3.2151335612270171e+00, 0.,
       2.3951971953248833e+01, 2.3979940296445562e+01, 2.3983937292422922e+01, 2.3983936020005530e+01, 2.3935989212686483e+01, 2.3949974056858991e+01, 2.3987932350194338e+01, 2.4007907836208364e+01, 2.4019898113253806e+01, 2.4025891642939733e+01, 2.4047867405610262e+01, 2.4027888307213065e+01, 2.3999918619653691e+01, 0., 1.9414901107390829e+01, 1.9748538192539403e+01, 1.9606693354984827e+01, 1.8625761899789662e+01, 1.7694770100682732e+01, 0., 1.7518961198223021e+01, 1.5425236205235390e+01, 0., 1.4799916777505668e+01, 1.4232534312587635e+01, 1.3707104721589925e+01, 1.3219634186593204e+01, 1.2782108940232083e+01, 1.2352576699743535e+01, 1.1955009042695764e+01, 1.1587408506161845e+01, 1.1229796854900972e+01, 1.0900154574636845e+01, 1.0568515847633465e+01, 1.0276831886364857e+01, 9.9072326750381592e+00, 0., 9.5316418176380342e+00, 9.3038892427577782e+00, 9.0901211449132635e+00, 8.8683623086013519e+00, 8.6705772184876952e+00, 8.4727922202667347e+00, 8.2849964808086494e+00, 8.0991993826333495e+00, 7.9353762210914534e+00, 7.7735528218518652e+00, 7.6177215858433565e+00, 7.4678847318477048e+00, 7.3260385760000624e+00, 7.1901866369734604e+00, 7.0543335818442516e+00, 6.9324663476027437e+00, 6.8026076421944683e+00, 6.6827378474648738e+00, 6.5728573400980830e+00, 6.4629768003849781e+00, 6.3510979251414730e+00, 6.2532044397557369e+00, 6.1553108544644513e+00, 6.0614125957774894e+00, 5.9635197757058185e+00, 5.8836061466640084e+00, 5.7937039238703507e+00, 5.7117930970318573e+00, 5.6318797107660323e+00, 5.5579602865067974e+00, 5.4800441411600413e+00, 5.4021299682597164e+00, 5.3362011153197413e+00, 5.2562875789428443e+00, 5.1823683025374150e+00, 5.1224332755394206e+00, 5.0565052095377130e+00, 4.9925741365340848e+00, 4.9366357747171099e+00, 4.8806960256779321e+00, 4.8207611913841442e+00, 4.7668199385607339e+00, 4.7048871867390618e+00, 4.6549412468993596e+00, 4.6029981047936976e+00, 4.5530519247900063e+00, 4.5011084568912851e+00, 4.4591541901249157e+00, 4.4132040353679649e+00, 4.3672541031510015e+00, 4.3233016367397186e+00, 4.2813473432848843e+00, 4.2353973843569825e+00, 4.1894476617097247e+00, 4.1534864373151548e+00, 4.1135297883127011e+00, 4.0735731189365270e+00, 4.0376125072003601e+00, 3.9976560162128010e+00, 3.9497074839770572e+00, 3.9257341220740862e+00, 3.8857772837067976e+00, 3.8518143082144833e+00, 3.8138555399477108e+00, 3.7858860820029068e+00, 3.7539204766900029e+00, 3.7259509466508205e+00, 3.6919877497510094e+00, 3.5001964513958725e+00, 3.2264939270860928e+00, 0., 3.5721179896194211e+00, 3.5441486114274063e+00, 3.5161791555439601e+00, 3.4902071874378282e+00, 3.4742244101929241e+00, 2.9028452957145428e+00, 3.1006305360965714e+00, 0., 0., 3.3303805306240557e+00, 3.3443657138833132e+00, 3.3723351589719663e+00, 3.3623462400768873e+00, 3.3963091620275478e+00, 3.4142897331683852e+00, 3.4342680562995560e+00, 3.4462546100661720e+00, 3.4642355470016559e+00, 3.4862115920650081e+00, 3.4782200665775833e+00, 3.2344849793537516e+00,
       1.8327248320625205e+01, 1.8345205635920760e+01, 1.8355180704406216e+01, 1.8341215254228743e+01, 1.8343209305809022e+01, 1.8343210137658481e+01, 1.8343207642109995e+01, 1.8341215254228743e+01, 1.8361165138789701e+01, 1.8355180704406216e+01, 1.8357173238986768e+01, 1.8381117444693754e+01, 1.8399074431650259e+01, 1.8413037433019181e+01, 1.8432989053575081e+01, 1.8452942255392752e+01, 1.8454935810284432e+01, 1.8490849061723409e+01, 1.7525204192317471e+01, 1.7509245255966739e+01, 1.7521217780444534e+01, 1.5402389321198118e+01, 0., 1.4783899694787802e+01, 1.4197332663593615e+01, 1.3678598793056482e+01, 1.3185803055623108e+01, 1.2762835455809586e+01, 1.2335877508364259e+01, 1.1948822244361313e+01, 1.1585710313644118e+01, 1.1220600963688536e+01, 1.0889409833457279e+01, 1.0556223432147222e+01, 1.0260944756926015e+01, 9.8619193830844623e+00, 9.5387081795886584e+00, 9.5147662597427516e+00, 9.2873219366447515e+00, 9.0738441761099367e+00, 8.8503893405596674e+00, 8.6488812202680112e+00, 8.4553535612187645e+00, 8.2618267945062769e+00, 8.0842592423523012e+00, 7.9206599821746329e+00, 7.7610490852753102e+00, 7.6034335963177373e+00, 7.4518038620417171e+00, 7.3081545185526160e+00, 7.1744816184111810e+00, 7.0388121226974665e+00, 6.9091288232447514e+00, 6.7954071915467864e+00, 6.6717086163752990e+00, 6.5619768206632578e+00, 6.4522447332047141e+00, 6.3385225753893710e+00, 6.2407612991539407e+00, 6.1449953014334087e+00, 6.0492285748943528e+00, 5.9534626862476401e+00, 5.8656769495651702e+00, 5.7838772139647556e+00, 5.6960904148726694e+00, 5.6222712361775482e+00, 5.5384758771808569e+00, 5.4666513830452006e+00, 5.3988169469124925e+00, 5.3289876558343758e+00, 5.2591581847299214e+00, 5.1913239506268116e+00, 5.1254843506239691e+00, 5.0576499028979063e+00, 5.0017868663797991e+00, 4.9359472223363019e+00, 4.8661179446575646e+00, 4.8242203314774734e+00, 4.7543908955917722e+00, 4.7025174480400489e+00, 4.6526389232558456e+00, 4.6047557379174622e+00, 4.5449023604947403e+00, 4.5049995623894246e+00, 4.4471403899253144e+00, 4.4112286948913466e+00, 4.3533701677696737e+00, 4.3194526244341942e+00, 4.2735649243313931e+00, 4.2336625629470532e+00, 4.1917643682925583e+00, 4.1538567787425773e+00, 4.1059737253365736e+00, 4.0720567242581689e+00, 4.0301590263852001e+00, 3.9922519984699250e+00, 3.9503538045692075e+00, 3.9204271539226268e+00, 3.8924950697517899e+00, 3.8525925317107008e+00, 3.8166804922816864e+00, 3.7867535349682750e+00, 3.7528362992137412e+00, 3.7209143230741288e+00, 3.6929823644172042e+00, 3.2061712898572319e+00, 3.5792599672910250e+00, 3.5892358707310095e+00, 3.5613038581372005e+00, 3.5453428748802094e+00, 3.5194061968366936e+00, 3.4974598522486029e+00, 3.4755134971553039e+00, 2.8909408809141910e+00, 0., 0., 0., 3.3418398240683236e+00, 3.3458299674036587e+00, 3.3677764165155297e+00, 3.3797472309648904e+00, 3.3857327514200062e+00, 3.4056839778873744e+00, 3.4376059775922161e+00, 3.4535669932856110e+00, 3.4695279735334115e+00, 3.4874839426853681e+00, 3.5074353939313747e+00, 3.4655378435628164e+00,
       1.3851848911308510e+01, 1.3855829415414384e+01, 1.3855830516668448e+01, 1.3849857679386377e+01, 1.3851848360523215e+01, 1.3851849462093783e+01, 1.3857821991448716e+01, 1.3851848911308510e+01, 1.3857821440900825e+01, 1.3859813730548755e+01, 1.3855830516668448e+01, 1.3869769785977546e+01, 1.3877736414601772e+01, 1.3887692256664543e+01, 1.3895657394797619e+01, 1.3895657394797619e+01, 1.3889683557452699e+01, 1.3895657394797619e+01, 1.3915571401901046e+01, 1.3921545091138748e+01, 1.3927520052735014e+01, 1.3929511137063573e+01, 0., 1.3935484873066345e+01, 1.3947433421524247e+01, 1.3931502484463381e+01, 1.3240502174281323e+01, 0., 1.2330455409887923e+01, 1.1934176796313354e+01, 1.1577723034098582e+01, 1.1231229593792326e+01, 1.0896680245875777e+01, 1.0552177848028613e+01, 1.0259449022754014e+01, 9.9169352091697718e+00, 0., 9.5226483663516461e+00, 9.2916501534034417e+00, 9.0745937287998437e+00, 8.8595274251107252e+00, 8.6544178700495848e+00, 8.4572743722270776e+00, 8.2641124819756708e+00, 8.0908650444787877e+00, 7.9255834322590548e+00, 7.7603012042235475e+00, 7.6069668008143303e+00, 7.4516408150273614e+00, 7.3082638721652158e+00, 7.1728520278463090e+00, 7.0434142282332450e+00, 6.9119849235582169e+00, 6.7885208177170764e+00, 6.6690393358295461e+00, 6.5575240389186602e+00, 6.4479998540570644e+00, 6.3325011392585582e+00, 6.2349247510785029e+00, 6.1353569438037470e+00, 6.0397724558429662e+00, 5.9461786388632349e+00, 5.8585588624319618e+00, 5.7689480599802598e+00, 5.6853113679324370e+00, 5.6056569137626013e+00, 5.5299860485376895e+00, 5.4582970693223229e+00, 5.3786434865693815e+00, 5.3089460265864457e+00, 5.2392478921446157e+00, 5.1655684914010642e+00, 5.1018447681051411e+00, 5.0361300666865212e+00, 4.9743984913094561e+00, 4.9166495543790969e+00, 4.8608916145299936e+00, 4.7991595963054348e+00, 4.7473844052705747e+00, 4.6896347271297545e+00, 4.6378599207139750e+00, 4.5840938052820208e+00, 4.5343099851041968e+00, 4.4865168862662212e+00, 4.4446986735005751e+00, 4.3988975704379705e+00, 4.3491138301012233e+00, 4.3112782392409263e+00, 4.2634853264560730e+00, 4.2137023115557364e+00, 4.1818404027476630e+00, 4.1300651201559182e+00, 4.0942205493522552e+00, 4.0563850744765988e+00, 4.0185493478473031e+00, 3.9827049195945334e+00, 3.9508433636758822e+00, 3.9130078263432386e+00, 3.8791545623251729e+00, 3.8413192382292616e+00, 3.8134401756826790e+00, 3.7795873091729382e+00, 3.7457337589345916e+00, 3.7178552657136121e+00, 3.6840022680749858e+00, 3.2180257926936209e+00, 3.5943913426539282e+00, 3.5904086294294886e+00, 3.5585468511076708e+00, 3.5306680925669869e+00, 3.5067718933427190e+00, 3.4788928504752614e+00, 3.4569879389059506e+00, 2.8735216735160543e+00, 2.8934353750080795e+00, 0., 3.3554289596738549e+00, 3.3394979375977649e+00, 3.3335240945272835e+00, 3.3474636667913638e+00, 3.3713599461274586e+00, 3.3813165964841536e+00, 3.4032218141682544e+00, 3.4231350464366108e+00, 3.4410572026538637e+00, 3.4569879389059506e+00, 3.4769015371903196e+00, 3.4948237152828354e+00, 3.5087629700010914e+00,
       1.1046723058537824e+01, 1.1044736231585295e+01, 1.1048708837686894e+01, 1.1044735540813274e+01, 1.1038776369699423e+01, 1.1036789840368836e+01, 1.1038776715271892e+01, 1.1034803644809099e+01, 1.1032816745923096e+01, 1.1026857360642385e+01, 1.1026857360642385e+01, 1.1032817091682233e+01, 1.1044735886199291e+01, 1.1036790186003506e+01, 1.1046722713213939e+01, 1.1050694950396503e+01, 1.1056654943077199e+01, 1.1060628096834481e+01, 1.1048708837686894e+01, 1.1066586186985775e+01, 1.1074532554526604e+01, 1.1080491430628800e+01, 0., 1.1098370172940054e+01, 1.1108303270540150e+01, 1.1118235042112582e+01, 1.1126180864733668e+01, 1.1134127183887054e+01, 1.1144059559988115e+01, 1.1142072971404273e+01, 0., 1.1136113134620638e+01, 1.0776563958401200e+01, 8.2001208226676550e+00, 0., 7.7472063997761422e+00, 7.7988550275018085e+00, 7.8822862129970588e+00, 7.9160561041711146e+00, 7.9418803466144849e+00, 7.9418803466144849e+00, 8.0849056746548627e+00, 8.0670281048132999e+00, 0., 7.8524889650847234e+00, 7.9081105089970620e+00, 7.7591257818100372e+00, 7.6041816049368114e+00, 7.4492371853468784e+00, 7.3081986255765452e+00, 7.1711326996198199e+00, 7.0360525048548510e+00, 6.9128919052309943e+00, 6.7937040802948747e+00, 6.6645845340665275e+00, 6.5573151951358399e+00, 6.4361413799758243e+00, 6.3368179706701540e+00, 6.2315349180842059e+00, 6.1361850674011196e+00, 6.0328885555536722e+00, 5.9474711966729110e+00, 5.8521205091082154e+00, 5.7627296517840207e+00, 5.6792989437887424e+00, 5.5998399711631688e+00, 5.5203812708000521e+00, 5.4468821995523991e+00, 5.3733832123352645e+00, 5.3018705054276118e+00, 5.2303575271735054e+00, 5.1608317046448038e+00, 5.0972644874605981e+00, 5.0356846569855431e+00, 4.9701311603025475e+00, 4.9125236685379248e+00, 4.8569029380143052e+00, 4.7992955167686215e+00, 4.7456607071603161e+00, 4.6900397985921112e+00, 4.6364054907475243e+00, 4.5927027332493546e+00, 4.5410548973436198e+00, 4.4913934420477499e+00, 4.4337858318110230e+00, 4.3861112912831439e+00, 4.3424085562855721e+00, 4.2987063302686312e+00, 4.2550046289152075e+00, 4.2113023362795641e+00, 4.1695868114066705e+00, 4.1298570647917527e+00, 4.0921145368191114e+00, 4.0543718454023203e+00, 4.0106693072648518e+00, 3.9768994381597520e+00, 3.9292240665864164e+00, 3.9034003277466103e+00, 3.8676440653387307e+00, 3.8299013337257422e+00, 3.8001042201155792e+00, 3.7663348150214651e+00, 3.7325644473358559e+00, 3.7027675279070191e+00, 3.1982059575715098e+00, 3.3432176112656586e+00, 0., 3.5796068612868748e+00, 3.5577556406201167e+00, 3.5299453350729832e+00, 3.5001482250979388e+00, 3.4723378090163286e+00, 3.4504867763158105e+00, 2.8505745626485965e+00, 2.8664666290869225e+00, 0., 3.3452044024546033e+00, 3.3372582851703996e+00, 3.3293125380036055e+00, 3.3491771541474602e+00, 0., 3.3789739877603284e+00, 3.3928793167881133e+00, 3.4127437742027125e+00, 3.4345951638015482e+00, 3.4504867763158105e+00, 3.4643920466378537e+00, 3.4822701567132808e+00, 3.5001484975647652e+00,
       9.2530648592534348e+00, 9.2570266840808646e+00, 9.2570270961675210e+00, 9.2590065487884718e+00, 9.2550455714855033e+00, 9.2590069607870120e+00, 9.2590069607870120e+00, 9.2609872259610668e+00, 9.2530656837796119e+00, 9.2590065487884718e+00, 9.2570262719941887e+00, 9.2669295989499414e+00, 9.2728702207756388e+00, 9.2590065487884718e+00, 9.2590065487884718e+00, 9.2609868140506251e+00, 9.2570270961675210e+00, 9.2491029871493229e+00, 9.2471234771976007e+00, 9.2491038120286877e+00, 9.2411819904208201e+00, 9.2431623600929491e+00, 0., 9.2491025747096138e+00, 9.2491038120286877e+00, 9.2550459836603718e+00, 9.2530652715165314e+00, 9.2609872259610668e+00, 9.2669295989499414e+00, 9.2471234771976007e+00, 9.1976100802852496e+00, 9.2708904364609594e+00, 9.2708900249905213e+00, 9.2669300105962318e+00, 9.2728706321582095e+00, 7.7637011104009295e+00, 7.7795464669350212e+00, 9.2708900249905213e+00, 9.2847536197937650e+00, 9.2075126823112150e+00, 8.9242955546900689e+00, 8.7777361915772900e+00, 0., 0., 0., 7.9241258782946273e+00, 7.7676630857184081e+00, 7.6112008224855741e+00, 7.4626600903283338e+00, 7.3161012307948745e+00, 7.1814241685322351e+00, 7.0447672802382080e+00, 6.9160321722126250e+00, 6.7932391384333997e+00, 6.6763872169573828e+00, 6.5615160976527260e+00, 6.4525876317951774e+00, 6.3396963312728083e+00, 6.2386891059143110e+00, 6.1416427894794117e+00, 6.0485578851685275e+00, 5.9495306903814704e+00, 5.8604061592659686e+00, 5.7732633943851255e+00, 5.6920610521142594e+00, 5.6108590290782976e+00, 5.5296568219448705e+00, 5.4563770816856074e+00, 5.3830980908908153e+00, 5.3098180845317398e+00, 5.2464405891023365e+00, 5.1731606352056767e+00, 5.1058217797081964e+00, 5.0464063491771673e+00, 4.9770871638904310e+00, 4.9196520432655237e+00, 4.8622167195861046e+00, 4.8047807886014606e+00, 4.7473448309266084e+00, 4.6899094556189782e+00, 4.6384152889561605e+00, 4.5869220671036715e+00, 4.5393887794870587e+00, 4.4918560934139942e+00, 4.4443233844376113e+00, 4.3928295316282551e+00, 4.3492572369524884e+00, 4.3056854365184494e+00, 4.2581529393714979e+00, 4.2165618873414239e+00, 4.1729897142105719e+00, 4.1313986424008569e+00, 4.0917873191266700e+00, 4.0561379721384521e+00, 4.0145468841677090e+00, 3.9828584066014865e+00, 3.9412669978575265e+00, 3.9075979119723141e+00, 3.8719482710511888e+00, 3.8422399516518144e+00, 3.8065906441129371e+00, 3.7729216355295110e+00, 0., 0., 3.2203516262292875e+00, 0., 0., 3.5847704615190894e+00, 3.5550625446038109e+00, 3.5293155198905679e+00, 3.5035684650275840e+00, 3.4778216535612478e+00, 3.4639577668238619e+00, 2.8460303585124858e+00, 2.8539527385944674e+00, 0., 3.3530477865097845e+00, 3.3471061049739821e+00, 3.3352230119847834e+00, 3.3510670684778190e+00, 0., 3.3906781592354944e+00, 3.3946389904417296e+00, 3.4283080226895453e+00, 3.4481133042856777e+00, 3.4580162239995831e+00, 3.4817826416606668e+00, 3.4956463575469487e+00, 3.5154516558827305e+00,
       7.9494277364266868e+00, 7.9435068064754297e+00, 7.9474545032390518e+00, 7.9454798197874990e+00, 7.9514014394365864e+00, 7.9494277364266868e+00, 7.9573212890499754e+00, 7.9474542632441381e+00, 7.9494279763620215e+00, 7.9435068064754297e+00, 7.9435068064754297e+00, 7.9454798197874990e+00, 7.9415333029832835e+00, 7.9395597894126473e+00, 7.9356134530649136e+00, 7.9395600296461941e+00, 7.9316653937221000e+00, 7.9257446709357975e+00, 7.9237717985427158e+00, 7.9257449115880867e+00, 7.9237722799671237e+00, 7.9257449115880867e+00, 0., 7.9158773196035366e+00, 7.9257451522403697e+00, 7.9217979532742442e+00, 7.9277184959190565e+00, 7.9257449115880867e+00, 7.9217984348186068e+00, 7.9257451522403697e+00, 7.9277189771037948e+00, 7.9217981940464295e+00, 7.9198238568996224e+00, 7.9257446709357975e+00, 7.9237720392549233e+00, 7.7816760088266115e+00, 7.8527238432936892e+00, 7.9533744128376886e+00, 7.9553478559568562e+00, 7.9592951914002823e+00, 7.9612690835018176e+00, 7.9731095898640714e+00, 7.9671892619874498e+00, 7.9691626348435092e+00, 7.9474547432339593e+00, 7.8882477757999023e+00, 7.8862742298266131e+00, 7.7540471984198200e+00, 7.7007609796387877e+00, 5.5180236960576661e+00, 0., 0., 7.0948837651415504e+00, 7.0021271879515297e+00, 6.6843867675905946e+00, 6.5659743058593429e+00, 6.4594036897078455e+00, 6.3488850973994220e+00, 6.2521813210072494e+00, 6.1495572806938839e+00, 6.0489063251725836e+00, 5.9344410294509835e+00, 5.8199752812335825e+00, 5.7449816490524332e+00, 5.6818276089676765e+00, 5.6167003860744353e+00, 5.5377596895450774e+00, 5.4667113945844710e+00, 5.3897435448949080e+00, 5.3226427977019757e+00, 5.2515950277695023e+00, 5.1785740180549347e+00, 5.1193682733863453e+00, 5.0522677777891314e+00, 4.9910881730463394e+00, 4.9338550875953606e+00, 4.8746488395785086e+00, 4.8174159715625979e+00, 4.7503154047602090e+00, 4.6970301071413818e+00, 4.6417707576528988e+00, 4.5904587353953188e+00, 4.5391467508451422e+00, 4.4977021178397658e+00, 4.4463901923006599e+00, 4.3970517945144314e+00, 4.3536339149474728e+00, 4.3141633295187898e+00, 4.2648243135176038e+00, 4.2214066794171048e+00, 4.1799622062179171e+00, 4.1365444589699694e+00, 4.1029940768038049e+00, 4.0635229143369918e+00, 4.0220790903138930e+00, 3.9885287306144006e+00, 3.9530046165742365e+00, 3.9115603552600078e+00, 3.8780104725515798e+00, 3.8405129052387230e+00, 3.8109097525511992e+00, 3.7773596557156073e+00, 3.7438092311446773e+00, 3.3984393240386628e+00, 3.2918681956217797e+00, 0., 3.6313174216861044e+00, 3.5918465258769201e+00, 3.5701376707314907e+00, 3.5385609791411801e+00, 3.5148786642693843e+00, 3.4852753575043325e+00, 3.4734341723056765e+00, 2.8142708183928944e+00, 2.8221654326398040e+00, 0., 0., 3.3530480709299111e+00, 3.3491009829660263e+00, 3.3688363200436315e+00, 0., 3.4004129215147092e+00, 3.4181750774778239e+00, 3.4319896574775983e+00, 3.4596192753532153e+00, 3.4754077150761380e+00, 3.4911959134292112e+00, 3.5129047635724038e+00, 3.5306666069530164e+00,
       6.9104165329548364e+00, 6.9104168089654916e+00, 6.9123814495054301e+00, 6.9084505053600669e+00, 6.9182780889690028e+00, 6.9123820013698118e+00, 6.9163123656687135e+00, 6.9202429782788677e+00, 6.9163120898933332e+00, 6.9163120898933332e+00, 6.9163123656687135e+00, 6.9163120898933332e+00, 6.9182780889690028e+00, 6.9202432538975991e+00, 6.9064855751147105e+00, 6.9123814495054301e+00, 6.9123817254376272e+00, 6.9104165329548364e+00, 6.9104168089654916e+00, 6.9064855751147105e+00, 6.9064858512824623e+00, 6.9064855751147105e+00, 0., 6.9123814495054301e+00, 6.9202432538975991e+00, 6.9182780889690028e+00, 6.9104168089654916e+00, 6.9064852989469481e+00, 6.9025545892211335e+00, 6.9064852989469481e+00, 6.9064858512824623e+00, 6.9064858512824623e+00, 6.9064855751147105e+00, 6.9123814495054301e+00, 6.9143471869356095e+00, 6.9143469110818492e+00, 6.9202438051350308e+00, 6.9222089630919799e+00, 6.9222084120110399e+00, 6.9241743897019168e+00, 6.9202435295163207e+00, 6.9261395339679765e+00, 6.9261398093520610e+00, 6.9300703525687775e+00, 6.9281049467423754e+00, 6.9379319065125094e+00, 6.9300709030245331e+00, 6.9340011434012219e+00, 6.9281043961304194e+00, 5.4560053085569802e+00, 5.4756595231757350e+00, 6.9241738387774010e+00, 5.1847769702703044e+00, 5.0884724055574031e+00, 5.0629213887726525e+00, 4.9705465655600083e+00, 4.8290362933215567e+00, 0., 4.9489273912857872e+00, 4.9449962255696853e+00, 4.9764427278439305e+00, 5.7881616465491037e+00, 5.7095446264398877e+00, 5.6093083539738604e+00, 5.4677979430766710e+00, 5.3990086033952691e+00, 5.3518378193891438e+00, 5.2791173116197889e+00, 5.2122938229701381e+00, 5.1592274710012722e+00, 5.1120564834984474e+00, 5.0550599233695959e+00, 5.0137860025479455e+00, 4.9548232960685565e+00, 4.8919303541364609e+00, 0., 0., 4.7445233545185825e+00, 4.6855605118470791e+00, 4.6324944475431975e+00, 4.5794282171490046e+00, 4.5302922782333486e+00, 4.4791918849974435e+00, 4.4359525749485176e+00, 4.3907481546200993e+00, 4.3455433608272829e+00, 4.2983733183140052e+00, 4.2531686078484015e+00, 4.2079641853810044e+00, 4.1706216479584821e+00, 4.1273817642254915e+00, 4.0880730556820719e+00, 4.0467991177429647e+00, 4.0035606272320710e+00, 3.9721136782264814e+00, 3.9328054871343165e+00, 3.8954621544469554e+00, 3.8640153301242925e+00, 3.8325686452233469e+00, 3.7952256878676645e+00, 3.7598480611904126e+00, 3.7323324451282511e+00, 3.2213229663831533e+00, 3.6360267775738242e+00, 3.6379922016011981e+00, 3.6085111566883556e+00, 3.5770640570258743e+00, 3.5515138648781699e+00, 3.5220324639335669e+00, 3.4925512342033231e+00, 3.4748624266691976e+00, 3.4414501728627953e+00, 2.8832709715462626e+00, 2.8282389749564816e+00, 3.3608679004735658e+00, 3.3510410285516681e+00, 3.3353173709141504e+00, 3.3254902757850338e+00, 3.3412137974848197e+00, 0., 0., 3.3982110309778539e+00, 3.4119687851152136e+00, 3.4217958484709867e+00, 3.4473464048609070e+00, 3.4650353138983303e+00, 3.4827239225957185e+00, 3.4925509611438059e+00, 3.5220321931596992e+00,
       6.1271174916190008e+00, 6.1290727426198961e+00, 6.1232041820901584e+00, 6.1290733650137277e+00, 6.1271168690264908e+00, 6.1271171803227533e+00, 6.1290733650137277e+00, 6.1271168690264908e+00, 6.1271174916190008e+00, 6.1271168690264908e+00, 6.1290727426198961e+00, 6.1329860395430931e+00, 6.1310298588513623e+00, 6.1310295477537613e+00, 6.1251609936789686e+00, 6.1290730538168194e+00, 6.1290733650137277e+00, 6.1271171803227533e+00, 6.1290730538168194e+00, 6.1290730538168194e+00, 6.1388548806439029e+00, 6.1310298588513623e+00, 0., 6.1349422182876765e+00, 6.1349422182876765e+00, 6.1329860395430931e+00, 6.1290730538168194e+00, 6.1349419073884679e+00, 6.1329860395430931e+00, 6.1349415964892433e+00, 6.1388551913449412e+00, 6.1447233932727992e+00, 6.1427672243349152e+00, 6.1447237036771023e+00, 6.1466801808857561e+00, 6.1408107428571546e+00, 6.1447237036771023e+00, 6.1427675348380673e+00, 6.1505918884781554e+00, 6.1486366559629122e+00, 6.1408110534592346e+00, 6.1427675348380673e+00, 6.1545054486038548e+00, 6.1564609859348485e+00, 6.1525489797118968e+00, 6.1564616055598380e+00, 6.1603742233154195e+00, 6.1642868329940512e+00, 6.1623297553697993e+00, 5.4815393491120954e+00, 5.5089279884926308e+00, 6.1642868329940512e+00, 6.1721117191549979e+00, 6.1701555778388872e+00, 6.1701555778388872e+00, 6.1701555778388872e+00, 6.1721120281819042e+00, 6.1760249225528661e+00, 6.1779810578514951e+00, 4.6481578582509142e+00, 4.5835998920030860e+00, 4.5288239397061432e+00, 4.5112167013011728e+00, 4.4349220201932873e+00, 4.3116746195535605e+00, 5.4013314336470328e+00, 0., 0., 4.3957958249967204e+00, 5.1783137966770099e+00, 5.1294064070914995e+00, 5.0687614619528816e+00, 4.9924652547682653e+00, 4.9279081636764399e+00, 4.8731322011567846e+00, 4.8085741155798374e+00, 4.7420595959378007e+00, 4.6872835236472188e+00, 4.6325074170995588e+00, 4.5914255086959974e+00, 4.5522996980530133e+00, 4.5014357925373032e+00, 4.4564410796000953e+00, 4.4134021906556820e+00, 4.3664513037379722e+00, 0., 4.3077625292514501e+00, 4.2627679108580168e+00, 4.2295107897232915e+00, 4.1864718413326854e+00, 4.1434335072796866e+00, 4.1023511146620235e+00, 4.0632257840258710e+00, 4.0201867461598129e+00, 3.9888861755059617e+00, 3.9478041231055498e+00, 3.9145473400746535e+00, 3.8754210704787604e+00, 3.8402075842538945e+00, 3.8108632060524217e+00, 3.7776063119708740e+00, 3.7286992694755501e+00, 3.2474503419528538e+00, 0., 3.6484908236868767e+00, 3.6230589833018692e+00, 3.6054522182296371e+00, 3.5624138001838350e+00, 3.5448068647407278e+00, 3.5213316314627674e+00, 3.4841623284137184e+00, 3.4665552017436330e+00, 3.2278872672891086e+00, 2.8248906477297240e+00, 3.3687406352236775e+00, 3.3530904492591733e+00, 3.3491777236450959e+00, 3.3335272414709478e+00, 3.3530903070509104e+00, 0., 0., 3.4078664881204621e+00, 3.4215604733356493e+00, 3.4391675199065936e+00, 3.4587302995071765e+00, 3.4743808716231839e+00, 3.4919871842453949e+00, 3.5135063060282103e+00, 3.5369818425897481e+00,
       5.3381979135389246e+00, 5.5328094525505236e+00, 5.5308636029298235e+00, 5.5328097972847115e+00, 5.5289172409743976e+00, 5.5308637753575614e+00, 5.5328097972847115e+00, 5.5386482374398636e+00, 5.5308637753575614e+00, 5.5405941071055169e+00, 5.5308637753575614e+00, 5.5347556519093750e+00, 5.5347558242158623e+00, 5.5367018561457373e+00, 5.5386480652544687e+00, 5.5386478930690695e+00, 5.5386478930690695e+00, 5.5367015116538827e+00, 5.5405941071055169e+00, 5.5405939349805946e+00, 5.5425401539395480e+00, 5.5386478930690695e+00, 0., 5.5405939349805946e+00, 5.5464327783667775e+00, 5.5425399818750600e+00, 5.5444867217635663e+00, 5.5464326064230489e+00, 5.5464327783667775e+00, 5.5503247346469902e+00, 5.5503247346469902e+00, 5.5444867217635663e+00, 5.5444867217635663e+00, 5.5444865497594877e+00, 5.5444867217635663e+00, 5.5464320905918312e+00, 5.5386482374398636e+00, 5.5444867217635663e+00, 5.5464322625355758e+00, 5.5444867217635663e+00, 5.5464326064230489e+00, 5.5444863777554039e+00, 5.5522709779598571e+00, 5.5542168826985598e+00, 5.5561631357892924e+00, 5.5542170544013079e+00, 5.5581093937011197e+00, 5.5483788399373779e+00, 5.5561629641466848e+00, 5.4861030138602507e+00, 5.5347556519093750e+00, 5.5581093937011197e+00, 5.5542167109958065e+00, 5.5581095652836199e+00, 5.5600551418616337e+00, 5.5620008951931936e+00, 5.5600553133840878e+00, 5.5639478535076812e+00, 5.5717319643464123e+00, 5.5697863572409680e+00, 5.5697861860181836e+00, 5.5756245626760075e+00, 5.5814624707488569e+00, 5.5775706980151689e+00, 5.5756245626760075e+00, 5.5736777478137904e+00, 4.2211269887815410e+00, 4.1685819165889617e+00, 4.1413361712378682e+00, 4.1569055025997335e+00, 4.1646895231773149e+00, 4.1744205552442724e+00, 4.1938815100526297e+00, 4.2055577608340986e+00, 4.2191810670250662e+00, 0., 4.3709776780276979e+00, 4.7932851076065495e+00, 4.6940335326522824e+00, 4.6531648591885402e+00, 4.5986737702903691e+00, 4.5480745706072900e+00, 4.4974756577974349e+00, 4.3378939227109257e+00, 4.3573551215611870e+00, 4.3534626125361404e+00, 4.3106482026774229e+00, 4.2678335432003225e+00, 4.2230731430133002e+00, 4.1822048129148301e+00, 4.1393900631137059e+00, 4.1004676738200203e+00, 4.0634912308600306e+00, 4.0245691578264537e+00, 3.9837010430690349e+00, 3.9525630988839611e+00, 3.9194790638032240e+00, 3.8766644502492937e+00, 3.8474728303362693e+00, 3.8163347813484707e+00, 3.7774124218163134e+00, 3.3804049128585070e+00, 3.4271113772341533e+00, 0., 3.6548070424048262e+00, 3.6314534588278580e+00, 3.6022620194114339e+00, 3.5711242954881426e+00, 3.5477706517748882e+00, 3.5185789456300194e+00, 3.4913333129775976e+00, 3.4640877123557425e+00, 3.3434282665016437e+00, 2.8257612603672024e+00, 3.3804047717993200e+00, 3.3667821795094937e+00, 3.3531589929398806e+00, 3.3473206466477947e+00, 3.3570514538969056e+00, 0., 0., 3.4076504409504742e+00, 3.4251654146443471e+00, 3.4426804780434339e+00, 3.4582492557707667e+00, 3.4621415982172015e+00, 3.4952256472850869e+00, 3.5107944787047991e+00, 3.5322017231121365e+00,
       5.0130696189455151e+00, 5.0150043424395454e+00, 5.0169392702845856e+00, 5.0188744022442853e+00, 5.0188740222091317e+00, 5.0188740222091317e+00, 5.0188742122267120e+00, 5.0188742122267120e+00, 5.0188744022442853e+00, 5.0208085984165534e+00, 5.0188744022442853e+00, 5.0227437585946939e+00, 5.0285481845640518e+00, 5.0188742122267120e+00, 5.0227437585946939e+00, 5.0246781734823882e+00, 5.0246783632804739e+00, 5.0266129822904082e+00, 5.0285483742160677e+00, 5.0227439484658767e+00, 5.0324173041123581e+00, 5.0246783632804739e+00, 0., 5.0266131720154377e+00, 5.0304826423748228e+00, 5.0266129822904082e+00, 5.0285485638680756e+00, 5.0266129822904082e+00, 5.0266133617404609e+00, 5.0285483742160677e+00, 5.0285483742160677e+00, 5.0285483742160677e+00, 5.0188742122267120e+00, 5.0246781734823882e+00, 5.0266131720154377e+00, 5.0266133617404609e+00, 5.0227439484658767e+00, 5.0227437585946939e+00, 5.0246779836842954e+00, 5.0266133617404609e+00, 5.0227433788523070e+00, 5.0208084084721820e+00, 5.0246779836842954e+00, 5.0266131720154377e+00, 5.0266135514654762e+00, 5.0266135514654762e+00, 5.0266135514654762e+00, 5.0266135514654762e+00, 5.0285481845640518e+00, 5.0266131720154377e+00, 5.0285481845640518e+00, 5.0246781734823882e+00, 5.0266129822904082e+00, 5.0266131720154377e+00, 5.0188744022442853e+00, 5.0343527378416457e+00, 5.0420921503442875e+00, 5.0440263296675880e+00, 5.0304828319539077e+00, 5.0343527378416457e+00, 5.0343527378416457e+00, 5.0324174936185617e+00, 5.0324174936185617e+00, 5.0343529272749947e+00, 5.0343529272749947e+00, 5.0362874277882366e+00, 5.0382219426726262e+00, 4.1578875305906262e+00, 4.1482133535402035e+00, 4.1636921501435467e+00, 5.0401566611268320e+00, 5.0382221319604961e+00, 5.0382215640968653e+00, 5.0343529272749947e+00, 5.0285485638680756e+00, 5.0188740222091317e+00, 5.0111347194170968e+00, 5.0033954535348419e+00, 4.8524807907109482e+00, 0., 4.6357836403047106e+00, 4.5990217412578627e+00, 4.5700001145243894e+00, 4.3397587064827885e+00, 4.3707154138378499e+00, 4.4771299951156278e+00, 4.3881287996346021e+00, 4.2681711723231066e+00, 4.2236706329592817e+00, 4.1830402367845556e+00, 4.1424089151704226e+00, 4.0998433897299664e+00, 4.0630821397812493e+00, 4.0224513354537619e+00, 3.9856902700424350e+00, 3.9469942946236940e+00, 3.9121677586678780e+00, 3.8812108871774322e+00, 3.8463846496875544e+00, 3.8115580911744558e+00, 3.7883403286503592e+00, 3.2698138808733073e+00, 0., 3.6819264591877308e+00, 3.6567739779624500e+00, 3.6296868116137557e+00, 3.6025998158759749e+00, 3.5677730953529423e+00, 3.5426206911966083e+00, 3.5290774523655499e+00, 3.4884463759209172e+00, 3.4632940600618887e+00, 3.3723580651641565e+00, 2.8073963907745698e+00, 3.3762278266074111e+00, 3.3626843143134164e+00, 3.3665540059442036e+00, 3.3472058272498848e+00, 3.3626843143134164e+00, 0., 0., 3.4071845776110581e+00, 3.4342716663146726e+00, 3.4420111446078283e+00, 3.4690981853420433e+00, 3.4923159855156274e+00, 3.5077945564337836e+00, 3.5271420510923548e+00, 3.5464903501075202e+00,
       4.5832956948324348e+00, 4.5717608382181627e+00, 4.5832954867563247e+00, 4.5756060339591009e+00, 4.5736831103842190e+00, 4.5717606296170628e+00, 4.5736831103842190e+00, 4.5736831103842190e+00, 4.5717608382181627e+00, 4.5717606296170628e+00, 4.5717606296170628e+00, 4.5794511247932448e+00, 4.5775283580924571e+00, 4.5698381748387842e+00, 4.5717608382181627e+00, 4.5736833188976362e+00, 4.5832954867563247e+00, 4.5698379661499198e+00, 4.5698379661499198e+00, 4.5698379661499198e+00, 4.5756058255333025e+00, 4.5756056171074952e+00, 0., 4.5736831103842190e+00, 4.5852187469117816e+00, 4.5775285664307175e+00, 4.5794511247932448e+00, 4.5794511247932448e+00, 4.5813739171774817e+00, 4.5832961109846257e+00, 4.5832961109846257e+00, 4.5832959029085352e+00, 4.5775283580924571e+00, 4.5756060339591009e+00, 4.5813735008506864e+00, 4.5794511247932448e+00, 4.5852191628894374e+00, 4.5909857704907600e+00, 4.5890636803869356e+00, 4.5794513330440303e+00, 4.5852191628894374e+00, 4.5832959029085352e+00, 4.5852191628894374e+00, 4.5852187469117816e+00, 4.5929087173424037e+00, 4.5813737090140885e+00, 4.5794511247932448e+00, 4.5832959029085352e+00, 4.5775283580924571e+00, 4.5794509165424495e+00, 4.5813737090140885e+00, 4.5813735008506864e+00, 4.5794511247932448e+00, 4.5832961109846257e+00, 4.5794511247932448e+00, 4.5813732926872746e+00, 4.5929089249829982e+00, 4.5909857704907600e+00, 4.5909859782183249e+00, 4.5890636803869356e+00, 4.5890636803869356e+00, 4.5967538575185127e+00, 4.5909859782183249e+00, 4.5929087173424037e+00, 4.5986762588532182e+00, 4.5967534425846752e+00, 4.5948310669903512e+00, 4.2141712348666305e+00, 4.1315032096517008e+00, 4.2949176561058175e+00, 4.5967534425846752e+00, 4.5967538575185127e+00, 4.6005986860694197e+00, 4.6044440322574678e+00, 4.6025209319277414e+00, 4.5967536500515989e+00, 4.5909857704907600e+00, 4.6063661226829522e+00, 4.6044440322574678e+00, 4.6025209319277414e+00, 4.5986762588532182e+00, 4.5967534425846752e+00, 4.5025494029603532e+00, 4.3314451847987199e+00, 4.3352901490995830e+00, 0., 4.3641285564532781e+00, 4.2737691077636155e+00, 0., 4.2141714611683723e+00, 4.1891790411509460e+00, 4.1641859426326455e+00, 4.1334253444479918e+00, 4.1103549267552753e+00, 4.0892071160124042e+00, 4.0411444782199579e+00, 3.9257929104304443e+00, 3.8834970895405876e+00, 3.8450466543078137e+00, 3.8123639191902639e+00, 3.6854775265070701e+00, 3.2875152355464752e+00, 0., 3.6835551740258721e+00, 3.6508718207120792e+00, 3.6258791153499392e+00, 3.5931963950293553e+00, 3.5643584105566952e+00, 3.5335981275795763e+00, 3.5105279891627856e+00, 3.4413170169688372e+00, 3.4566972991508154e+00, 3.4278592948212991e+00, 2.7838140091647774e+00, 3.3721062298984910e+00, 3.3567261654663993e+00, 3.3413458050979408e+00, 3.3432685291504498e+00, 3.3528811121659734e+00, 0., 0., 3.3970989528973639e+00, 3.4163241020844901e+00, 3.4336272184891179e+00, 3.4509295220331637e+00, 3.4720775692796275e+00, 3.4874578275147425e+00, 3.5086050518824736e+00, 3.5259078135175099e+00,
       4.1907165471829524e+00, 4.2059897264327004e+00, 4.1926251831655152e+00, 4.1926249557007882e+00, 4.1926251831655152e+00, 4.1926249557007882e+00, 4.1945340874687735e+00, 4.1926249557007882e+00, 4.1926249557007882e+00, 4.1945343148299710e+00, 4.1907163196146282e+00, 4.1926251831655152e+00, 4.2002619525418536e+00, 4.1983531538821168e+00, 4.1945345421911551e+00, 4.1945345421911551e+00, 4.1926251831655152e+00, 4.1926249557007882e+00, 4.1983526995733280e+00, 4.1964439414998020e+00, 4.1926249557007882e+00, 4.2002621795929995e+00, 0., 4.2021710188868626e+00, 4.2040808062423158e+00, 4.2078986871946356e+00, 4.2021712458348590e+00, 4.2021714727828421e+00, 4.2002621795929995e+00, 4.2040803525524790e+00, 4.2059899531746456e+00, 4.2098083680818155e+00, 4.2174447760276328e+00, 4.2117171830797258e+00, 4.2117171830797258e+00, 4.2117171830797258e+00, 4.2174450021537222e+00, 4.2193539787563301e+00, 4.2212634475941133e+00, 4.2136264913513823e+00, 4.2059897264327004e+00, 4.2098083680818155e+00, 4.2117171830797258e+00, 4.2059899531746456e+00, 4.2117171830797258e+00, 4.2078986871946356e+00, 4.2078986871946356e+00, 4.2136264913513823e+00, 4.2155362922265418e+00, 4.2136264913513823e+00, 4.2136262650203724e+00, 4.2117169566461126e+00, 4.2212632216725723e+00, 4.2193544308038566e+00, 4.2136262650203724e+00, 4.2174450021537222e+00, 4.2136264913513823e+00, 4.2155362922265418e+00, 4.2174450021537222e+00, 4.2136267176823807e+00, 4.2136264913513823e+00, 4.2136264913513823e+00, 4.2136262650203724e+00, 4.2136264913513823e+00, 4.2174450021537222e+00, 4.2136262650203724e+00, 4.2155360659980685e+00, 4.1525320762208411e+00, 4.1315304474856500e+00, 4.1868978038895150e+00, 4.2174447760276328e+00, 4.2155362922265418e+00, 4.2250820535671254e+00, 4.2250818278497713e+00, 4.2231727305412576e+00, 4.2250818278497713e+00, 4.2250820535671254e+00, 4.2250820535671254e+00, 4.2174450021537222e+00, 4.2212634475941133e+00, 4.2212634475941133e+00, 4.2174447760276328e+00, 4.2231727305412576e+00, 4.2250818278497713e+00, 4.2289003686108186e+00, 4.2250818278497713e+00, 4.2212634475941133e+00, 4.2193539787563301e+00, 4.2250820535671254e+00, 4.2117174095133274e+00, 4.2098085946180870e+00, 4.2193539787563301e+00, 4.1964439414998020e+00, 4.1639871501009766e+00, 4.1219845934361992e+00, 3.9787939140060820e+00, 0., 3.8508769386616741e+00, 3.8317848616317276e+00, 3.8069647958749564e+00, 3.2723861863385046e+00, 0., 3.7057766333850948e+00, 3.6771384317018088e+00, 3.6446819703561326e+00, 3.6122253524759933e+00, 3.5835872087071730e+00, 3.5568583472624034e+00, 3.5301293139235650e+00, 3.5034003769702058e+00, 3.4804901225143454e+00, 3.4461241304575743e+00, 3.4270320683657780e+00, 2.7664454046116251e+00, 3.3602098004371843e+00, 3.3468455308886598e+00, 3.3372991494310140e+00, 3.3334806091834039e+00, 3.3506637826591654e+00, 0., 0., 3.3907571933835694e+00, 3.4098491727076778e+00, 3.4442150764253650e+00, 3.4613977819368524e+00, 3.4766716757787339e+00, 3.4823992819917002e+00, 3.5014912289503188e+00, 3.5186740792521514e+00,
       3.8956184667945304e+00, 3.9050924798660214e+00, 3.8994080705642040e+00, 3.8994081928487003e+00, 3.9031976599912830e+00, 3.8975137904365478e+00, 3.8937241799859335e+00, 3.9013027753991247e+00, 3.9013030198493359e+00, 3.8994080705642040e+00, 3.8994081928487003e+00, 3.8937239350599184e+00, 3.8956185891979831e+00, 3.8975136680926150e+00, 3.8937239350599184e+00, 3.8994080705642040e+00, 3.8994080705642040e+00, 3.9013028976242321e+00, 3.8994081928487003e+00, 3.8975135457486783e+00, 3.8956183443910737e+00, 3.9031976599912830e+00, 0., 3.8956184667945304e+00, 3.8975136680926150e+00, 3.8994080705642040e+00, 3.8975137904365478e+00, 3.8975136680926150e+00, 3.8994080705642040e+00, 3.8994080705642040e+00, 3.9088821698159286e+00, 3.8994080705642040e+00, 3.8994080705642040e+00, 3.9031977821570538e+00, 3.9050924798660214e+00, 3.9031977821570538e+00, 3.8975136680926150e+00, 3.9031979043228207e+00, 3.9031977821570538e+00, 3.9031977821570538e+00, 3.9050924798660214e+00, 3.9050923577595236e+00, 3.9050924798660214e+00, 3.9031977821570538e+00, 3.9031977821570538e+00, 3.9069871130702207e+00, 3.9069873571647773e+00, 3.9069872351175010e+00, 3.8994080705642040e+00, 3.9013030198493359e+00, 3.9013028976242321e+00, 3.8994081928487003e+00, 3.9031977821570538e+00, 3.9050926019725152e+00, 3.9013027753991247e+00, 3.9013027753991247e+00, 3.9013030198493359e+00, 3.9050924798660214e+00, 3.9031977821570538e+00, 3.9013028976242321e+00, 3.8956183443910737e+00, 3.8994080705642040e+00, 3.8956183443910737e+00, 3.8956184667945304e+00, 3.8994080705642040e+00, 3.9013026531740134e+00, 3.9013030198493359e+00, 3.8975136680926150e+00, 3.8994081928487003e+00, 3.8975137904365478e+00, 3.8937240575229279e+00, 3.9031977821570538e+00, 3.9031976599912830e+00, 3.9069872351175010e+00, 3.9013030198493359e+00, 3.9013027753991247e+00, 3.9013027753991247e+00, 3.9013028976242321e+00, 3.9069871130702207e+00, 3.9050924798660214e+00, 3.9031976599912830e+00, 3.9069869910229369e+00, 3.9050924798660214e+00, 3.9050924798660214e+00, 3.9088819258396961e+00, 3.9088820478278143e+00, 3.9050924798660214e+00, 3.9145660990115205e+00, 3.9069873571647773e+00, 3.9088822918040393e+00, 3.9107767959844311e+00, 3.9107769179134433e+00, 3.9126713578111616e+00, 3.9202505448129772e+00, 3.9126714796811344e+00, 3.9202504231786173e+00, 3.9221452718672176e+00, 3.9202503015442538e+00, 3.9145660990115205e+00, 3.2892966289052201e+00, 3.2798227748442761e+00, 3.8785662084241754e+00, 3.8709865828537549e+00, 3.8065649644546040e+00, 3.6587742625931785e+00, 0., 0., 3.5621418019962787e+00, 3.5412993446302741e+00, 3.5090884328609717e+00, 3.4787725046398315e+00, 3.4598249106675305e+00, 3.4446665186374110e+00, 2.7625542958995339e+00, 3.3707712313130442e+00, 3.3575080829446375e+00, 3.3518237032175739e+00, 3.3404553305179143e+00, 3.3499292337714919e+00, 0., 0., 3.4029822117298245e+00, 3.4200349502562282e+00, 3.4370877105380422e+00, 3.4522458161212621e+00, 3.4730882064905115e+00, 3.4901409254067692e+00, 3.5128778872051671e+00, 3.5280360897406782e+00,
       3.6403693244448943e+00, 3.6328517460497691e+00, 3.6403691934589628e+00, 3.6403693244448943e+00, 3.6403690624730265e+00, 3.6347313848048053e+00, 3.6309725788397427e+00, 3.6403691934589628e+00, 3.6366105765245922e+00, 3.6403690624730265e+00, 3.6366105765245922e+00, 3.6403691934589628e+00, 3.6366105765245922e+00, 3.6403693244448943e+00, 3.6403690624730265e+00, 3.6422486184325913e+00, 3.6384899771697659e+00, 3.6422484875142449e+00, 3.6422484875142449e+00, 3.6460075700088068e+00, 3.6441282517677709e+00, 3.6441283826185855e+00, 0., 3.6309723161899075e+00, 3.6422487493509332e+00, 3.6403691934589628e+00, 3.6422487493509332e+00, 3.6422487493509332e+00, 3.6366107076459042e+00, 3.6403691934589628e+00, 3.6422487493509332e+00, 3.6290930955497673e+00, 3.6253343625260697e+00, 3.6272136900715379e+00, 3.6253342309969145e+00, 3.6290930955497673e+00, 3.6272138215325409e+00, 3.6290932269426901e+00, 3.6347311224265852e+00, 3.6422486184325913e+00, 3.6422486184325913e+00, 3.6460075700088068e+00, 3.6347312536156977e+00, 3.6384897150625850e+00, 3.6403693244448943e+00, 3.6403691934589628e+00, 3.6384901082233494e+00, 3.6347312536156977e+00, 3.6347312536156977e+00, 3.6366105765245922e+00, 3.6347313848048053e+00, 3.6460075700088068e+00, 3.6403691934589628e+00, 3.6403691934589628e+00, 3.6422486184325913e+00, 3.6384898461161779e+00, 3.6441285134693953e+00, 3.6422486184325913e+00, 3.6366105765245922e+00, 3.6441285134693953e+00, 3.6366105765245922e+00, 3.6460075700088068e+00, 3.6403690624730265e+00, 3.6422486184325913e+00, 3.6403691934589628e+00, 3.6441282517677709e+00, 3.6441283826185855e+00, 3.6441282517677709e+00, 3.6403691934589628e+00, 3.6403693244448943e+00, 3.6441281209169518e+00, 3.6441285134693953e+00, 3.6441283826185855e+00, 3.6384901082233494e+00, 3.6366105765245922e+00, 3.6384899771697659e+00, 3.6384899771697659e+00, 3.6272136900715379e+00, 3.6366104454032757e+00, 3.6403693244448943e+00, 3.6290932269426901e+00, 3.6309724475148273e+00, 3.6290930955497673e+00, 3.6441282517677709e+00, 3.6460075700088068e+00, 3.6422487493509332e+00, 3.6309721848649823e+00, 3.6347312536156977e+00, 3.6441283826185855e+00, 3.6422486184325913e+00, 3.6478869657906818e+00, 3.6478869657906818e+00, 3.6422487493509332e+00, 3.6441285134693953e+00, 3.6497664389936109e+00, 3.6478870965066701e+00, 3.6497664389936109e+00, 3.6516457283351782e+00, 3.6497665696422859e+00, 3.3020798515678527e+00, 3.6046611174770073e+00, 3.6554044088044129e+00, 3.6591632680776529e+00, 3.6535250951276548e+00, 3.6478869657906818e+00, 3.6535250951276548e+00, 3.6516454671722887e+00, 3.1423324574287577e+00, 3.6516455977537357e+00, 3.6384902392769281e+00, 3.6215754150560606e+00, 3.6178167796811898e+00, 2.7927666010760617e+00, 2.7514200878818924e+00, 3.3640997729116910e+00, 0., 3.3528230870712883e+00, 3.3490643917077332e+00, 3.3772552866913061e+00, 0., 3.3979286952987935e+00, 3.4186017828966881e+00, 3.4336372173105443e+00, 3.4524308969928339e+00, 3.4674658245446004e+00, 3.4825010178366638e+00, 3.5050538224075294e+00, 3.5200887189868628e+00, 3.5370031432487536e+00,
       3.3850745551549553e+00, 3.3888004861220749e+00, 3.3869372586660984e+00, 3.3925264010881446e+00, 3.3888004861220749e+00, 3.3794855051261736e+00, 3.3850745551549553e+00, 3.3813483260942476e+00, 3.3869372586660984e+00, 3.3832113898590022e+00, 3.3813483260942476e+00, 3.3832115308011699e+00, 3.3832115308011699e+00, 3.3832116717433323e+00, 3.3794857873212818e+00, 3.3850742734257526e+00, 3.3888006268317894e+00, 3.3794855051261736e+00, 3.3794857873212818e+00, 3.3813481850744171e+00, 3.3794855051261736e+00, 3.3888006268317894e+00, 0., 3.3869373994532199e+00, 3.3813484671140723e+00, 3.3813483260942476e+00, 3.3832115308011699e+00, 3.3850744142903570e+00, 3.3832116717433323e+00, 3.3813484671140723e+00, 3.3813483260942476e+00, 3.3794856462237308e+00, 3.3794855051261736e+00, 3.3850744142903570e+00, 3.3850744142903570e+00, 3.3813484671140723e+00, 3.3850742734257526e+00, 3.3906633928647913e+00, 3.3906632522323803e+00, 3.3869373994532199e+00, 3.3869373994532199e+00, 3.3832116717433323e+00, 3.3869373994532199e+00, 3.3832115308011699e+00, 3.3776223626549831e+00, 3.3813486081338913e+00, 3.3757593219082849e+00, 3.3888006268317894e+00, 3.3906632522323803e+00, 3.3850744142903570e+00, 3.3757594631615859e+00, 3.3757591806549780e+00, 3.3738965243858892e+00, 3.3776223626549831e+00, 3.3776223626549831e+00, 3.3813483260942476e+00, 3.3776225038303713e+00, 3.3757594631615859e+00, 3.3776223626549831e+00, 3.3794856462237308e+00, 3.3794857873212818e+00, 3.3757594631615859e+00, 3.3757593219082849e+00, 3.3794856462237308e+00, 3.3757594631615859e+00, 3.3832115308011699e+00, 3.3794856462237308e+00, 3.3794856462237308e+00, 3.3757594631615859e+00, 3.3794856462237308e+00, 3.3757591806549780e+00, 3.3794859284188266e+00, 3.3776225038303713e+00, 3.3757593219082849e+00, 3.3757596044148812e+00, 3.3813483260942476e+00, 3.3738966657171794e+00, 3.3869373994532199e+00, 3.3906632522323803e+00, 3.3850744142903570e+00, 3.3925264010881446e+00, 3.3850742734257526e+00, 3.3888006268317894e+00, 3.3850744142903570e+00, 3.3869372586660984e+00, 3.3794856462237308e+00, 3.3869372586660984e+00, 3.3906632522323803e+00, 3.3906635334971966e+00, 3.3925264010881446e+00, 3.3925264010881446e+00, 3.3906635334971966e+00, 3.3943896511030704e+00, 3.3925264010881446e+00, 3.3906633928647913e+00, 3.3925262605329620e+00, 3.3999783234746741e+00, 3.3962524405068062e+00, 3.3776223626549831e+00, 3.3347731977262618e+00, 3.3850744142903570e+00, 3.3999786039688971e+00, 3.3999783234746741e+00, 3.3850744142903570e+00, 3.3925264010881446e+00, 3.4037048910670316e+00, 3.4018414167056732e+00, 3.4018415568759783e+00, 3.4055673457638749e+00, 3.4037046108798865e+00, 3.4055673457638749e+00, 3.4074306016937288e+00, 3.3962524405068062e+00, 2.7423389534275007e+00, 2.7516539541682907e+00, 3.4074307416341134e+00, 3.3664445167999402e+00, 3.3459515320709983e+00, 3.3645818058793857e+00, 3.3720332634440231e+00, 3.3888006268317894e+00, 3.3906635334971966e+00, 3.4018414167056732e+00, 3.4055673457638749e+00, 3.4055673457638749e+00, 3.4092936784956600e+00, 3.4092935386317431e+00, 3.4074307416341134e+00, 3.4074306016937288e+00,
       3.1446985046260889e+00, 3.1483888835324465e+00, 3.1649982340297020e+00, 3.1502347222932441e+00, 3.1668437272480086e+00, 3.1631531715608352e+00, 3.1502347222932441e+00, 3.1613074847478155e+00, 3.1631533223082449e+00, 3.1631530208134184e+00, 3.1649983846892322e+00, 3.1502345709276436e+00, 3.1520800852501458e+00, 3.1502348736588370e+00, 3.1502347222932441e+00, 3.1502345709276436e+00, 3.1483890349867818e+00, 3.1483890349867818e+00, 3.1613076355832366e+00, 3.1520799339731616e+00, 3.1520800852501458e+00, 3.1483891864411104e+00, 0., 3.1649983846892322e+00, 3.1594623798847845e+00, 3.1483890349867818e+00, 3.1483891864411104e+00, 3.1502347222932441e+00, 3.1649983846892322e+00, 3.1520799339731616e+00, 3.1649985353487553e+00, 3.1686894999791053e+00, 3.1483888835324465e+00, 3.1613076355832366e+00, 3.1502345709276436e+00, 3.1631531715608352e+00, 3.1576166498982809e+00, 3.1668440283914663e+00, 3.1631531715608352e+00, 3.1520800852501458e+00, 3.1631531715608352e+00, 3.1539255779922377e+00, 3.1649982340297020e+00, 3.1668438778197410e+00, 3.1631531715608352e+00, 3.1649983846892322e+00, 3.1631531715608352e+00, 3.1649982340297020e+00, 3.1668435766762686e+00, 3.1631533223082449e+00, 3.1520800852501458e+00, 3.1520799339731616e+00, 3.1502345709276436e+00, 3.1594622289612690e+00, 3.1668440283914663e+00, 3.1539257291806964e+00, 3.1649985353487553e+00, 3.1686896504631292e+00, 3.1502348736588370e+00, 3.1686896504631292e+00, 3.1520802365271230e+00, 3.1613077864186510e+00, 3.1576166498982809e+00, 3.1557712002918255e+00, 3.1631530208134184e+00, 3.1649983846892322e+00, 3.1723805292478824e+00, 3.1668437272480086e+00, 3.1539255779922377e+00, 3.1668440283914663e+00, 3.1594622289612690e+00, 3.1502348736588370e+00, 3.1686893494950739e+00, 3.1686894999791053e+00, 3.1539258803691479e+00, 3.1520800852501458e+00, 3.1649983846892322e+00, 3.1539255779922377e+00, 3.1686893494950739e+00, 3.1631531715608352e+00, 3.1649982340297020e+00, 3.1668438778197410e+00, 3.1668438778197410e+00, 3.1631530208134184e+00, 3.1631531715608352e+00, 3.1649982340297020e+00, 3.1631530208134184e+00, 3.1649982340297020e+00, 3.1631533223082449e+00, 3.1594622289612690e+00, 3.1613076355832366e+00, 3.1649983846892322e+00, 3.1668438778197410e+00, 3.1668438778197410e+00, 3.1686896504631292e+00, 3.1649982340297020e+00, 3.1631531715608352e+00, 3.1705347997526965e+00, 3.1649983846892322e+00, 3.1631531715608352e+00, 3.1668438778197410e+00, 3.1686896504631292e+00, 3.1686894999791053e+00, 3.1686893494950739e+00, 3.1686894999791053e+00, 3.1705349501491367e+00, 3.1723803789389375e+00, 3.1742259366073582e+00, 3.1649982340297020e+00, 3.1742259366073582e+00, 3.1723803789389375e+00, 3.1760713226611994e+00, 3.1557710491917805e+00, 2.7220829670725442e+00, 2.9490775977707573e+00, 3.1705349501491367e+00, 3.1779171375877664e+00, 3.1779169875406921e+00, 3.1816079528517358e+00, 3.1834531039196978e+00, 3.1797624808803651e+00, 3.1760713226611994e+00, 3.1723803789389375e+00, 3.1871442409272261e+00, 3.1945262585174383e+00, 3.1963718588898153e+00, 3.2185174061706179e+00, 3.2185174061706179e+00, 3.2148265444178104e+00,
       2.9507522335145846e+00, 2.9507519103175510e+00, 2.9635415415213524e+00, 2.9544059760509698e+00, 2.9507520719160722e+00, 2.9525790239655283e+00, 2.9525790239655283e+00, 2.9470975207298271e+00, 2.9525790239655283e+00, 2.9507520719160722e+00, 2.9507520719160722e+00, 2.9489246348067324e+00, 2.9544059760509698e+00, 2.9507522335145846e+00, 2.9525791854640491e+00, 2.9489246348067324e+00, 2.9635415415213524e+00, 2.9635415415213524e+00, 2.9635413806202262e+00, 2.9635413806202262e+00, 2.9635415415213524e+00, 2.9598874769216477e+00, 0., 2.9635415415213524e+00, 2.9598874769216477e+00, 2.9635415415213524e+00, 2.9617142677524773e+00, 2.9653683325236648e+00, 2.9598876380214021e+00, 2.9544059760509698e+00, 2.9525790239655283e+00, 2.9544059760509698e+00, 2.9544059760509698e+00, 2.9507520719160722e+00, 2.9580603639273799e+00, 2.9525790239655283e+00, 2.9525790239655283e+00, 2.9544058146523078e+00, 2.9489246348067324e+00, 2.9525790239655283e+00, 2.9525788624669982e+00, 2.9544059760509698e+00, 2.9544059760509698e+00, 2.9525790239655283e+00, 2.9489246348067324e+00, 2.9544061374496229e+00, 2.9544061374496229e+00, 2.9489247965053864e+00, 2.9562330894712394e+00, 2.9525790239655283e+00, 2.9580603639273799e+00, 2.9525790239655283e+00, 2.9525788624669982e+00, 2.9525790239655283e+00, 2.9544061374496229e+00, 2.9507519103175510e+00, 2.9525791854640491e+00, 2.9690228788548554e+00, 2.9562329281723305e+00, 2.9562330894712394e+00, 2.9580602027281100e+00, 2.9562332507701390e+00, 2.9562329281723305e+00, 2.9562330894712394e+00, 2.9598874769216477e+00, 2.9580600415288312e+00, 2.9562329281723305e+00, 2.9580602027281100e+00, 2.9544061374496229e+00, 2.9525791854640491e+00, 2.9525790239655283e+00, 2.9580602027281100e+00, 2.9598873158218848e+00, 2.9580603639273799e+00, 2.9544059760509698e+00, 2.9671957665720483e+00, 2.9580603639273799e+00, 2.9598874769216477e+00, 2.9580602027281100e+00, 2.9635415415213524e+00, 2.9671957665720483e+00, 2.9690227182507813e+00, 2.9580603639273799e+00, 2.9580602027281100e+00, 2.9598874769216477e+00, 2.9580603639273799e+00, 2.9562329281723305e+00, 2.9562330894712394e+00, 2.9544061374496229e+00, 2.9562330894712394e+00, 2.9544061374496229e+00, 2.9580602027281100e+00, 2.9562329281723305e+00, 2.9562329281723305e+00, 2.9544061374496229e+00, 2.9653684933256601e+00, 2.9507520719160722e+00, 2.9690228788548554e+00, 2.9544059760509698e+00, 2.9544061374496229e+00, 2.9653686541276469e+00, 2.9544061374496229e+00, 2.9562329281723305e+00, 2.9562330894712394e+00, 2.9544059760509698e+00, 2.9544061374496229e+00, 2.9617142677524773e+00, 2.9598876380214021e+00, 2.9598874769216477e+00, 2.9598876380214021e+00, 2.9617142677524773e+00, 2.9598876380214021e+00, 2.9544058146523078e+00, 2.7077487803785640e+00, 2.8283367604594765e+00, 2.9690228788548554e+00, 2.9635415415213524e+00, 2.9653684933256601e+00, 2.9690228788548554e+00, 2.9690227182507813e+00, 2.9745040544285719e+00, 2.9690227182507813e+00, 2.9726771029368790e+00, 2.9745040544285719e+00, 2.9726769425302306e+00, 2.9708498304710660e+00, 2.9726771029368790e+00, 2.9781581176325420e+00, 2.9726767821235733e+00,
       2.7838849219730801e+00, 2.7838846650458757e+00, 2.7784617302541377e+00, 2.7802694928295693e+00, 2.7802694928295693e+00, 2.7820771948157401e+00, 2.7784617302541377e+00, 2.7820771091176932e+00, 2.7784619018732526e+00, 2.7820771091176932e+00, 2.7784616444445760e+00, 2.7802694070758021e+00, 2.7820771091176932e+00, 2.7820770234196432e+00, 2.7820771948157401e+00, 2.7820770234196432e+00, 2.7838847506882800e+00, 2.7820770234196432e+00, 2.7820769377215906e+00, 2.7802694070758021e+00, 2.7802694928295693e+00, 2.7947311282962040e+00, 0., 2.7784616444445760e+00, 2.7838849219730801e+00, 2.7820770234196432e+00, 2.7838847506882800e+00, 2.7802693213220322e+00, 2.7802694070758021e+00, 2.7838846650458757e+00, 2.7802694928295693e+00, 2.7820771948157401e+00, 2.7820769377215906e+00, 2.7820771091176932e+00, 2.7802694070758021e+00, 2.7820770234196432e+00, 2.7802693213220322e+00, 2.7802693213220322e+00, 2.7802692355682597e+00, 2.7784617302541377e+00, 2.7802694928295693e+00, 2.7911155688128066e+00, 2.7838846650458757e+00, 2.7820769377215906e+00, 2.7875001950114231e+00, 2.7820771091176932e+00, 2.7802694070758021e+00, 2.7965389454730221e+00, 2.7838847506882800e+00, 2.7838848363306812e+00, 2.7820771091176932e+00, 2.7929232506947339e+00, 2.7983464467428858e+00, 2.7893081685068299e+00, 2.7893080830309454e+00, 2.7929234214252201e+00, 2.7911155688128066e+00, 2.7947312136062266e+00, 2.7838847506882800e+00, 2.7820772805137848e+00, 2.7947311282962040e+00, 2.7802694070758021e+00, 2.7856925886657637e+00, 2.7820772805137848e+00, 2.7875002805427442e+00, 2.7820768520235357e+00, 2.7838847506882800e+00, 2.7838846650458757e+00, 2.7820771091176932e+00, 2.7838848363306812e+00, 2.7893080830309454e+00, 2.7838848363306812e+00, 2.7838847506882800e+00, 2.7838849219730801e+00, 2.7838848363306812e+00, 2.7802694928295693e+00, 2.7838847506882800e+00, 2.7820770234196432e+00, 2.7838846650458757e+00, 2.7838847506882800e+00, 2.7911155688128066e+00, 2.7838848363306812e+00, 2.7820770234196432e+00, 2.7947312136062266e+00, 2.7838845794034692e+00, 2.7802693213220322e+00, 2.7802693213220322e+00, 2.7856926742525854e+00, 2.7802694070758021e+00, 2.7838847506882800e+00, 2.7802694928295693e+00, 2.7766536493748055e+00, 2.7838847506882800e+00, 2.7784617302541377e+00, 2.7802694070758021e+00, 2.7802693213220322e+00, 2.7893079975550585e+00, 2.7893081685068299e+00, 2.7965389454730221e+00, 2.7802692355682597e+00, 2.7784615586350121e+00, 2.7820772805137848e+00, 2.7893080830309454e+00, 2.7929235067904590e+00, 2.7929235067904590e+00, 2.7965389454730221e+00, 2.7965387749632664e+00, 2.7965388602181456e+00, 2.7838847506882800e+00, 2.7820772805137848e+00, 2.7965387749632664e+00, 2.7820770234196432e+00, 2.7875001094800989e+00, 2.6898834837173418e+00, 2.7748463665472856e+00, 2.8001542287312313e+00, 2.8001541435864272e+00, 2.7856927598394048e+00, 2.7820771091176932e+00, 2.7875001950114231e+00, 2.8001542287312313e+00, 2.7838847506882800e+00, 2.7875001950114231e+00, 2.7929234214252201e+00, 2.7893079975550585e+00, 2.8019620356251211e+00, 2.8019618654453806e+00, 2.8055771290754352e+00, 2.8037697823413756e+00,
       2.6432883470546775e+00, 2.6432884372523948e+00, 2.6432884372523948e+00, 2.6468627208798710e+00, 2.6450754617119405e+00, 2.6432884372523948e+00, 2.6450752814383787e+00, 2.6450752814383787e+00, 2.6504371318517785e+00, 2.6486497642053948e+00, 2.6486497642053948e+00, 2.6343521461083768e+00, 2.6397141911667945e+00, 2.6361394401218825e+00, 2.6397141008469469e+00, 2.6415007453901520e+00, 2.6415009259076636e+00, 2.6397140105270962e+00, 2.6379265173683586e+00, 2.6415008356489094e+00, 2.6379266981304603e+00, 2.6397139202072424e+00, 0., 2.6522241939066262e+00, 2.6468629010316929e+00, 2.6486499442356686e+00, 2.6325649971468663e+00, 2.6486500342508008e+00, 2.6486500342508008e+00, 2.6486500342508008e+00, 2.6343523271157423e+00, 2.6450751913015931e+00, 2.6343521461083768e+00, 2.6361393496795564e+00, 2.6361395305642059e+00, 2.6307778122796703e+00, 2.6486498542205332e+00, 2.6325649971468663e+00, 2.6361391687948950e+00, 2.6307777216530188e+00, 2.6504370418973404e+00, 2.6486498542205332e+00, 2.6468628109557835e+00, 2.6486499442356686e+00, 2.6432883470546775e+00, 2.6343524176194202e+00, 2.6361394401218825e+00, 2.6343522366120613e+00, 2.6343521461083768e+00, 2.6379264269873031e+00, 2.6468627208798710e+00, 2.6361392592372273e+00, 2.6325650877119902e+00, 2.6450753715751611e+00, 2.6343521461083768e+00, 2.6486497642053948e+00, 2.6468628109557835e+00, 2.6361393496795564e+00, 2.6361394401218825e+00, 2.6486499442356686e+00, 2.6343523271157423e+00, 2.6325650877119902e+00, 2.6361393496795564e+00, 2.6343521461083768e+00, 2.6432884372523948e+00, 2.6486497642053948e+00, 2.6343522366120613e+00, 2.6450753715751611e+00, 2.6325651782771109e+00, 2.6361393496795564e+00, 2.6468627208798710e+00, 2.6343521461083768e+00, 2.6361394401218825e+00, 2.6486500342508008e+00, 2.6361394401218825e+00, 2.6361393496795564e+00, 2.6325651782771109e+00, 2.6468628109557835e+00, 2.6468625407280366e+00, 2.6432883470546775e+00, 2.6450753715751611e+00, 2.6486498542205332e+00, 2.6343522366120613e+00, 2.6468627208798710e+00, 2.6486498542205332e+00, 2.6307778122796703e+00, 2.6468627208798710e+00, 2.6397138298873859e+00, 2.6343524176194202e+00, 2.6468627208798710e+00, 2.6343521461083768e+00, 2.6468627208798710e+00, 2.6450753715751611e+00, 2.6361394401218825e+00, 2.6325649065817394e+00, 2.6486499442356686e+00, 2.6361392592372273e+00, 2.6415011064251632e+00, 2.6486500342508008e+00, 2.6379265173683586e+00, 2.6486499442356686e+00, 2.6468628109557835e+00, 2.6486499442356686e+00, 2.6486499442356686e+00, 2.6343520556046895e+00, 2.6450753715751611e+00, 2.6486499442356686e+00, 2.6486500342508008e+00, 2.6486499442356686e+00, 2.6468628109557835e+00, 2.6432884372523948e+00, 2.6522242838004502e+00, 2.6468627208798710e+00, 2.6450753715751611e+00, 2.6504372218062136e+00, 2.6468627208798710e+00, 2.6504370418973404e+00, 2.6397139202072424e+00, 2.6361394401218825e+00, 2.6540114899870262e+00, 2.6397139202072424e+00, 2.6415010161664152e+00, 2.6397140105270962e+00, 2.6397140105270962e+00, 2.6540114001537365e+00, 2.6415010161664152e+00, 2.6432884372523948e+00, 2.6415008356489094e+00, 2.6450751913015931e+00,
       2.5058051420841196e+00, 2.5022734795028190e+00, 2.5040393621379500e+00, 2.5005076846573124e+00, 2.5022735747836014e+00, 2.4934439526292875e+00, 2.5058054275235917e+00, 2.5022735747836014e+00, 2.5005076846573124e+00, 2.5093371548773882e+00, 2.5005076846573124e+00, 2.4952098732173549e+00, 2.4916780244021934e+00, 2.4899123757812451e+00, 2.4952100643183699e+00, 2.4952100643183699e+00, 2.5093372498899589e+00, 2.4916779287162418e+00, 2.4952099687678642e+00, 2.5058052372306139e+00, 2.5075712949557163e+00, 2.4934437613929150e+00, 0., 2.4934439526292875e+00, 2.4916780244021934e+00, 2.5058052372306139e+00, 2.4952100643183699e+00, 2.5058053323771046e+00, 2.4934440482474680e+00, 2.4952099687678642e+00, 2.4934440482474680e+00, 2.4934441438656454e+00, 2.5058052372306139e+00, 2.5040394573515385e+00, 2.4952098732173549e+00, 2.4916779287162418e+00, 2.4952098732173549e+00, 2.5005075893092417e+00, 2.4952099687678642e+00, 2.4899122800274403e+00, 2.5058052372306139e+00, 2.4916780244021934e+00, 2.4899122800274403e+00, 2.5022736700643797e+00, 2.5040396477787059e+00, 2.5058052372306139e+00, 2.5022736700643797e+00, 2.5005076846573124e+00, 2.5058052372306139e+00, 2.5022734795028190e+00, 2.5058051420841196e+00, 2.5022734795028190e+00, 2.5005076846573124e+00, 2.5005076846573124e+00, 2.5040395525651240e+00, 2.4952098732173549e+00, 2.4987418823720988e+00, 2.5022734795028190e+00, 2.4952099687678642e+00, 2.5040396477787059e+00, 2.4934439526292875e+00, 2.4934438570111030e+00, 2.4916780244021934e+00, 2.4934440482474680e+00, 2.5022735747836014e+00, 2.5075711998762329e+00, 2.5005076846573124e+00, 2.5005076846573124e+00, 2.4969758816655370e+00, 2.5005077800053797e+00, 2.5005074939611673e+00, 2.5022736700643797e+00, 2.5005076846573124e+00, 2.5005074939611673e+00, 2.5005074939611673e+00, 2.4987417869566477e+00, 2.5058053323771046e+00, 2.4987417869566477e+00, 2.5022734795028190e+00, 2.5040393621379500e+00, 2.5040395525651240e+00, 2.5022734795028190e+00, 2.4881461449658651e+00, 2.5022734795028190e+00, 2.5040394573515385e+00, 2.5005076846573124e+00, 2.5005074939611673e+00, 2.5005074939611673e+00, 2.5005075893092417e+00, 2.5058051420841196e+00, 2.5005076846573124e+00, 2.4934439526292875e+00, 2.4969755952167234e+00, 2.5075711047967459e+00, 2.5022735747836014e+00, 2.5040396477787059e+00, 2.5040395525651240e+00, 2.5040396477787059e+00, 2.5005075893092417e+00, 2.5075711998762329e+00, 2.5058053323771046e+00, 2.4987419777875459e+00, 2.4987417869566477e+00, 2.5022736700643797e+00, 2.5005076846573124e+00, 2.5058053323771046e+00, 2.5058053323771046e+00, 2.5022736700643797e+00, 2.5058053323771046e+00, 2.5040396477787059e+00, 2.4987418823720988e+00, 2.5022734795028190e+00, 2.5022734795028190e+00, 2.5005074939611673e+00, 2.5005076846573124e+00, 2.5022736700643797e+00, 2.5040395525651240e+00, 2.5005075893092417e+00, 2.4987419777875459e+00, 2.4934440482474680e+00, 2.5093371548773882e+00, 2.4934440482474680e+00, 2.5040395525651240e+00, 2.4969755952167234e+00, 2.4952098732173549e+00, 2.5111029123586910e+00, 2.5058053323771046e+00, 2.5075711998762329e+00, 2.5058052372306139e+00,
       2.3626131989339898e+00, 2.3608696857763611e+00, 2.3626131989339898e+00, 2.3591259957592743e+00, 2.3591257936347674e+00, 2.3608696857763611e+00, 2.3608697867639656e+00, 2.3608694838011393e+00, 2.3591257936347674e+00, 2.3608696857763611e+00, 2.3626131989339898e+00, 2.3556386908469613e+00, 2.3591258946970228e+00, 2.3591259957592743e+00, 2.3556387920588215e+00, 2.3626132998470695e+00, 2.3608697867639656e+00, 2.3573822296272828e+00, 2.3556386908469613e+00, 2.3608695847887522e+00, 2.3521512837445413e+00, 2.3573822296272828e+00, 0., 2.3573823307642860e+00, 2.3608697867639656e+00, 2.3643569389780805e+00, 2.3643568381394209e+00, 2.3608696857763611e+00, 2.3643568381394209e+00, 2.3643567373007572e+00, 2.3608697867639656e+00, 2.3626131989339898e+00, 2.3626130980209057e+00, 2.3643567373007572e+00, 2.3643567373007572e+00, 2.3626132998470695e+00, 2.3643566364620892e+00, 2.3643567373007572e+00, 2.3626130980209057e+00, 2.3661006031139920e+00, 2.3626131989339898e+00, 2.3626132998470695e+00, 2.3626130980209057e+00, 2.3608694838011393e+00, 2.3608696857763611e+00, 2.3591257936347674e+00, 2.3626132998470695e+00, 2.3643568381394209e+00, 2.3608696857763611e+00, 2.3573822296272828e+00, 2.3608695847887522e+00, 2.3591258946970228e+00, 2.3608695847887522e+00, 2.3608696857763611e+00, 2.3573823307642860e+00, 2.3626131989339898e+00, 2.3573824319012848e+00, 2.3556388932706773e+00, 2.3591259957592743e+00, 2.3626132998470695e+00, 2.3573824319012848e+00, 2.3626132998470695e+00, 2.3608694838011393e+00, 2.3573822296272828e+00, 2.3591258946970228e+00, 2.3591258946970228e+00, 2.3573822296272828e+00, 2.3608696857763611e+00, 2.3591259957592743e+00, 2.3591259957592743e+00, 2.3591257936347674e+00, 2.3591257936347674e+00, 2.3591257936347674e+00, 2.3591258946970228e+00, 2.3591258946970228e+00, 2.3643566364620892e+00, 2.3591258946970228e+00, 2.3626132998470695e+00, 2.3608696857763611e+00, 2.3573822296272828e+00, 2.3573824319012848e+00, 2.3538948734893523e+00, 2.3608696857763611e+00, 2.3591257936347674e+00, 2.3626131989339898e+00, 2.3591258946970228e+00, 2.3573823307642860e+00, 2.3573822296272828e+00, 2.3538949747761926e+00, 2.3591259957592743e+00, 2.3573824319012848e+00, 2.3591258946970228e+00, 2.3608695847887522e+00, 2.3608695847887522e+00, 2.3591258946970228e+00, 2.3556387920588215e+00, 2.3626130980209057e+00, 2.3626131989339898e+00, 2.3643567373007572e+00, 2.3608695847887522e+00, 2.3626132998470695e+00, 2.3643568381394209e+00, 2.3591257936347674e+00, 2.3626131989339898e+00, 2.3591257936347674e+00, 2.3608695847887522e+00, 2.3591257936347674e+00, 2.3591259957592743e+00, 2.3608696857763611e+00, 2.3626134007601447e+00, 2.3626131989339898e+00, 2.3626131989339898e+00, 2.3573822296272828e+00, 2.3608696857763611e+00, 2.3626132998470695e+00, 2.3643568381394209e+00, 2.3556387920588215e+00, 2.3556387920588215e+00, 2.3626132998470695e+00, 2.3608695847887522e+00, 2.3573822296272828e+00, 2.3608696857763611e+00, 2.3591257936347674e+00, 2.3573822296272828e+00, 2.3538948734893523e+00, 2.3573824319012848e+00, 2.3643568381394209e+00, 2.3643566364620892e+00, 2.3643567373007572e+00,
       2.2294296275922205e+00, 2.2277094513691047e+00, 2.2294295206507040e+00, 2.2311498667583471e+00, 2.2277095583931934e+00, 2.2259891240213259e+00, 2.2277096654172768e+00, 2.2328703822754621e+00, 2.2294296275922205e+00, 2.2277093443450111e+00, 2.2294296275922205e+00, 2.2294298414752376e+00, 2.2328703822754621e+00, 2.2311499736174056e+00, 2.2277096654172768e+00, 2.2294296275922205e+00, 2.2294297345337317e+00, 2.2294296275922205e+00, 2.2294297345337317e+00, 2.2294297345337317e+00, 2.2311498667583471e+00, 2.2294297345337317e+00, 0., 2.2294297345337317e+00, 2.2328702754987382e+00, 2.2277095583931934e+00, 2.2277095583931934e+00, 2.2277096654172768e+00, 2.2294298414752376e+00, 2.2311497598992842e+00, 2.2328703822754621e+00, 2.2311499736174056e+00, 2.2294297345337317e+00, 2.2277095583931934e+00, 2.2294297345337317e+00, 2.2294298414752376e+00, 2.2311499736174056e+00, 2.2277095583931934e+00, 2.2311499736174056e+00, 2.2259891240213259e+00, 2.2328703822754621e+00, 2.2259890169145202e+00, 2.2277095583931934e+00, 2.2294296275922205e+00, 2.2294297345337317e+00, 2.2294297345337317e+00, 2.2311499736174056e+00, 2.2311499736174056e+00, 2.2259891240213259e+00, 2.2294297345337317e+00, 2.2259892311281266e+00, 2.2328703822754621e+00, 2.2277094513691047e+00, 2.2294299484167386e+00, 2.2259891240213259e+00, 2.2328703822754621e+00, 2.2294298414752376e+00, 2.2259891240213259e+00, 2.2259892311281266e+00, 2.2259892311281266e+00, 2.2277095583931934e+00, 2.2277094513691047e+00, 2.2277094513691047e+00, 2.2294298414752376e+00, 2.2277094513691047e+00, 2.2277094513691047e+00, 2.2259891240213259e+00, 2.2277095583931934e+00, 2.2225487654563496e+00, 2.2242690739567901e+00, 2.2191083376939051e+00, 2.2225488727289444e+00, 2.2277094513691047e+00, 2.2277095583931934e+00, 2.2328704890521811e+00, 2.2225487654563496e+00, 2.2311499736174056e+00, 2.2259892311281266e+00, 2.2225487654563496e+00, 2.2242691811464175e+00, 2.2242691811464175e+00, 2.2259891240213259e+00, 2.2225486581837495e+00, 2.2242691811464175e+00, 2.2277095583931934e+00, 2.2242691811464175e+00, 2.2225487654563496e+00, 2.2242691811464175e+00, 2.2259891240213259e+00, 2.2259891240213259e+00, 2.2242691811464175e+00, 2.2277095583931934e+00, 2.2259891240213259e+00, 2.2259891240213259e+00, 2.2259891240213259e+00, 2.2294297345337317e+00, 2.2242691811464175e+00, 2.2277096654172768e+00, 2.2242691811464175e+00, 2.2208284126308335e+00, 2.2225487654563496e+00, 2.2242691811464175e+00, 2.2294297345337317e+00, 2.2277094513691047e+00, 2.2345903199491075e+00, 2.2259891240213259e+00, 2.2225487654563496e+00, 2.2242692883360395e+00, 2.2225487654563496e+00, 2.2242692883360395e+00, 2.2242691811464175e+00, 2.2259891240213259e+00, 2.2191083376939051e+00, 2.2259891240213259e+00, 2.2259891240213259e+00, 2.2277096654172768e+00, 2.2259891240213259e+00, 2.2277095583931934e+00, 2.2242692883360395e+00, 2.2259891240213259e+00, 2.2225487654563496e+00, 2.2259891240213259e+00, 2.2294297345337317e+00, 2.2242691811464175e+00, 2.2225486581837495e+00, 2.2208286273422146e+00, 2.2242691811464175e+00, 2.2208285199865268e+00, 2.2191082302549936e+00 ]
